ply
format ascii 1.0
element vertex 740
property float x
property float y
property float z
property float nx
property float ny
property float nz
property uchar diffuse_red
property uchar diffuse_green
property uchar diffuse_blue
end_header
-1.83855 -2.32796 12.571 0.930715 -0.0261793 -0.364807 255 255 255
-1.82401 -2.30862 12.7943 0.929956 -0.0248952 -0.366826 254 254 254
-1.829 -2.32208 12.81 0.92628 -0.0588495 -0.372213 254 254 254
-0.943887 -2.21651 12.1956 -0.0943715 -0.346511 -0.933287 253 253 253
-0.956801 -2.25197 12.2386 -0.261629 -0.480534 -0.83704 255 255 255
-0.989074 -2.25623 12.2512 0.130902 -0.692326 -0.709612 255 255 255
-0.737985 -2.1934 12.1566 -0.262356 -0.475999 -0.839401 254 254 254
-0.660084 -2.20414 12.1893 -0.48727 -0.434161 -0.757675 254 254 254
-0.503493 -2.22015 12.2177 -0.257946 -0.495017 -0.829712 255 255 255
-0.420996 -2.20324 12.1563 -0.315772 -0.329583 -0.889754 255 255 255
-0.0997227 -2.17354 12.0341 -0.354132 0.125797 -0.926696 255 255 255
-0.132153 -2.20679 12.1117 -0.700074 0.165941 -0.694522 255 255 255
-0.0546855 -2.19614 12.08 -0.277517 0.232204 -0.932237 238 238 238
0.119033 -2.19631 11.9782 -0.723665 0.11843 -0.679914 0 0 0
0.34389 -2.19752 12.159 -0.269127 -0.358293 -0.893978 0 0 0
0.376102 -2.21238 12.1541 -0.270479 0.0611831 -0.96078 0 0 0
0.431142 -2.21379 12.1807 -0.448697 0.132001 -0.883881 0 0 0
0.433688 -2.21976 12.1733 -0.364552 0.163018 -0.916802 0 0 0
0.638081 -2.22124 12.2301 0.755686 0.356404 -0.549467 255 255 255
1.0655 -2.20966 12.3465 -0.669868 0.0590645 -0.740127 0 0 0
1.13564 -2.20756 12.2996 -0.461916 -0.057134 -0.885081 12 12 12
1.20793 -2.20673 12.2678 -0.349563 -0.207792 -0.91358 69 69 69
1.27922 -2.20934 12.2285 -0.280829 0.701717 -0.654774 152 152 152
1.34491 -2.21367 12.2325 -0.290116 0.185147 -0.938911 198 198 198
1.41219 -2.21299 12.2115 -0.24991 0.115799 -0.96132 223 223 223
1.47794 -2.17618 12.1988 -0.28007 0.135315 -0.950395 132 132 132
1.44744 -2.15347 12.2087 -0.286555 0.244966 -0.926217 28 28 28
1.60623 -2.16224 12.1328 -0.264422 0.767576 -0.583873 199 199 199
1.6471 -2.18183 12.0332 -0.440139 0.820998 -0.363647 255 255 255
-1.97341 -2.24654 12.5117 0.910846 -0.0384464 -0.410953 255 255 255
-1.9646 -2.17143 12.312 0.911166 0.0263887 -0.411193 255 255 255
-1.88791 -2.23327 12.7207 0.648159 0.700185 -0.299384 254 254 254
-1.78957 -2.2782 12.8586 0.83852 0.419712 -0.347456 249 249 249
-0.908446 -2.15699 12.1937 -0.139923 -0.472915 -0.869927 165 165 165
-0.827538 -2.16178 12.2071 -0.143607 -0.461219 -0.875588 184 184 184
-0.738857 -2.117 12.1156 -0.113024 -0.507219 -0.854374 111 111 111
-0.653793 -2.15232 12.0864 -0.0983122 -0.706722 -0.700628 249 249 249
-0.545209 -2.18166 12.2418 -0.466848 -0.442387 -0.765733 254 254 254
-0.549986 -2.18624 12.2632 -0.553844 -0.403908 -0.72809 254 254 254
-0.468484 -2.16456 12.1933 -0.306659 -0.467815 -0.82892 255 255 255
-0.353746 -2.1154 12.1433 -0.170288 -0.504894 -0.846218 255 255 255
-0.129988 -2.113 12.055 -0.0107798 0.216156 -0.976299 255 255 255
-0.059813 -2.12264 12.0558 0.0339756 0.436927 -0.898855 249 249 249
-0.00652263 -2.14023 12.0398 0.708392 0.218736 -0.671071 90 90 90
0.0124144 -2.119 12.0392 -0.391396 0.317767 -0.863616 29 29 29
0.0274855 -2.0864 12.0734 0.358181 0.505634 -0.784882 3 3 3
0.0895905 -2.10757 11.9491 -0.725576 0.221913 -0.651378 0 0 0
0.0895905 -2.10757 11.9491 -0.725576 0.221913 -0.651378 0 0 0
0.0895905 -2.10757 11.9491 -0.725576 0.221913 -0.651378 0 0 0
0.133982 -2.10074 12.0091 -0.617964 0.537051 -0.574192 0 0 0
0.1723 -2.13639 12.1503 -0.485638 0.658754 -0.57463 0 0 0
0.282178 -2.13326 12.1399 -0.622395 -0.362062 -0.693927 0 0 0
0.345867 -2.13675 12.1586 -0.0282148 0.289365 -0.956803 0 0 0
0.468193 -2.1501 12.1699 -0.262197 0.212398 -0.94135 5 5 5
0.517914 -2.16552 12.2516 0.858264 0.210361 -0.468115 195 195 195
0.756842 -2.17712 12.5445 0.7393 -0.364317 -0.566312 6 6 6
0.756663 -2.17742 12.5461 0.740875 -0.361751 -0.565898 6 6 6
0.915597 -2.11103 12.0795 0.136713 -0.718757 -0.681688 0 0 0
1.09165 -2.15018 12.3652 -0.65344 0.307785 -0.691581 0 0 0
1.16138 -2.14876 12.307 -0.350119 0.181985 -0.918857 0 0 0
1.24824 -2.1517 12.2585 -0.543166 -0.205045 -0.814203 1 1 1
1.31536 -2.15212 12.2379 -0.323763 0.0272938 -0.945744 2 2 2
1.37985 -2.15458 12.2321 -0.229077 0.187757 -0.955129 11 11 11
1.4197 -2.09304 12.2181 -0.363986 0.0969599 -0.926344 0 0 0
1.51404 -2.11434 12.184 -0.279167 0.10758 -0.954197 6 6 6
1.58068 -2.11515 12.1691 -0.0898346 0.214334 -0.972621 25 25 25
-2.05122 -2.15852 12.3767 0.254598 0.908188 -0.332226 255 255 255
-2.14063 -2.12298 12.5307 0.00980575 0.925845 -0.377776 255 255 255
-2.04812 -2.13582 12.5084 0.615438 0.575225 -0.538843 255 255 255
-1.9679 -2.14233 12.5599 0.611517 0.732247 -0.299771 254 254 254
-1.84011 -2.16989 12.8481 0.573951 0.758394 -0.3089 57 57 57
-1.82712 -2.20369 12.832 0.703995 -0.159915 -0.691967 129 129 129
-0.904027 -2.09194 12.1132 0.129756 -0.178505 -0.975346 10 10 10
-0.718631 -2.04189 12.0903 -0.54949 -0.340122 -0.763137 0 0 0
-0.635193 -2.05591 12.0659 -0.420101 -0.499056 -0.75793 4 4 4
-0.517677 -2.10616 12.186 -0.37444 -0.441565 -0.815362 211 211 211
-0.544243 -2.05945 12.0345 -0.366407 -0.392757 -0.843498 77 77 77
-0.434973 -2.09465 12.144 -0.218836 -0.467249 -0.856615 247 247 247
-0.245548 -2.08886 12.1584 0.399528 -0.500054 -0.768325 255 255 255
-0.0936289 -2.06765 12.0727 -0.0400727 0.423889 -0.904827 255 255 255
-0.0246032 -2.06727 12.0732 -0.32495 0.378627 -0.866631 144 144 144
-0.0120204 -2.05865 12.0699 -0.450568 0.382411 -0.806691 82 82 82
0.0331261 -2.04212 12.1425 0.772924 0.305847 -0.555919 0 0 0
0.0855488 -2.06543 12.1077 0.481929 0.460302 -0.745564 0 0 0
0.10956 -2.07079 12.1653 0.624357 0.152689 -0.766071 0 0 0
0.187669 -2.03784 12.105 -0.246061 0.531688 -0.810408 0 0 0
0.312822 -2.07772 12.1582 0.00929548 0.116939 -0.993096 0 0 0
0.378993 -2.07973 12.1708 -0.073492 0.225308 -0.971512 0 0 0
0.448939 -2.07511 12.1382 0.730087 0.164707 -0.663208 0 0 0
0.446184 -2.04067 12.1563 0.850393 0.0469396 -0.52405 0 0 0
0.803392 -2.0875 12.634 0.745998 -0.353495 -0.564383 0 0 0
1.06431 -2.08255 12.3828 -0.640573 0.340802 -0.688128 4 4 4
1.12924 -2.06853 12.3472 -0.602614 0.310053 -0.735339 127 127 127
1.17878 -2.04667 12.3196 -0.37558 0.496947 -0.782294 211 211 211
1.2823 -2.09089 12.2523 -0.352809 0.1122 -0.928944 5 5 5
1.24555 -2.03022 12.267 -0.290893 -0.289677 -0.911849 212 212 212
1.31689 -2.0271 12.2417 -0.247356 -0.251121 -0.935817 189 189 189
1.38927 -2.02651 12.2215 -0.352259 -0.0999316 -0.930552 136 136 136
1.45945 -2.03048 12.2026 -0.233215 0.0753857 -0.969499 61 61 61
-2.26409 -2.06479 12.5911 0.559117 0.599836 -0.57235 255 255 255
-2.16558 -2.05649 12.5716 0.467873 0.783988 -0.407992 255 255 255
-2.06194 -2.08174 12.6247 0.604595 0.737575 -0.300746 255 255 255
-1.7255 -2.16048 12.9139 0.91551 -0.111726 -0.386471 0 0 0
-0.964664 -2.04409 12.1865 0.258105 0.392622 -0.88274 5 5 5
-0.890498 -2.04175 12.1895 0.236212 0.298777 -0.924627 3 3 3
-0.792138 -2.02942 12.113 -0.545286 -0.338631 -0.766807 0 0 0
-0.756899 -1.99835 12.1553 0.167055 -0.774815 -0.609716 29 29 29
-0.406122 -2.01891 12.1019 -0.427143 -0.226215 -0.875429 110 110 110
-0.265416 -2.01216 12.0348 0.367924 -0.362518 -0.856278 254 254 254
-0.194729 -2.0132 12.0726 0.375679 -0.356667 -0.855368 255 255 255
-0.1158 -2.00384 12.0436 0.357728 0.242041 -0.901913 255 255 255
-0.05709 -2.01275 12.0903 0.0674151 0.341033 -0.937631 238 238 238
0.0648264 -1.97358 12.1347 0.708308 0.187679 -0.680498 0 0 0
0.119591 -2.00037 12.1875 0.859732 0.146254 -0.489358 0 0 0
0.274225 -1.9994 12.214 0.581496 -0.193831 -0.790122 5 5 5
0.339072 -1.97691 12.2422 0.719932 -0.0624097 -0.691233 0 0 0
0.394236 -2.00688 12.1951 0.769159 -0.0890716 -0.632819 0 0 0
0.986182 -2.00448 12.3782 0.179849 0.267244 -0.946697 0 0 0
1.10164 -2.00645 12.3873 -0.598305 0.305658 -0.740679 139 139 139
1.27991 -1.97194 12.2493 -0.224688 -0.261876 -0.938582 254 254 254
-2.24567 -1.99685 12.6077 0.494539 0.7039 -0.509858 255 255 255
-2.18921 -2.05429 12.5939 0.412661 0.710939 -0.569453 255 255 255
-1.93286 -2.03644 12.7312 0.313829 0.471988 -0.823856 2 2 2
-1.77587 -2.07814 12.8162 0.890839 -0.182183 -0.416192 1 1 1
-1.76037 -2.06758 12.812 0.717921 0.541462 -0.437504 3 3 3
-0.781285 -1.9331 12.1122 -0.0376419 -0.166486 -0.985325 220 220 220
-0.755084 -1.91212 12.1133 0.0915318 -0.605419 -0.790626 253 253 253
-0.643629 -1.92073 11.9891 0.121198 -0.579773 -0.805714 111 111 111
-0.646083 -1.91993 11.993 0.10301 -0.680279 -0.725678 119 119 119
-0.590285 -1.89767 11.9242 0.211984 -0.746447 -0.630777 119 119 119
-0.497782 -1.87505 11.9334 0.810103 0.111482 -0.575591 45 45 45
-0.458945 -1.94986 12.1073 -0.5765 -0.398539 -0.713312 0 0 0
-0.378199 -1.94895 12.0642 -0.384152 -0.371804 -0.845097 5 5 5
-0.308307 -1.94736 12.0264 -0.354714 0.00298792 -0.93497 112 112 112
-0.339738 -1.88393 12.0138 -0.15195 -0.308247 -0.939093 0 0 0
-0.274873 -1.88693 12.0177 -0.198566 -0.0528907 -0.978659 40 40 40
-0.239681 -1.94745 12.013 -0.145836 -0.173288 -0.974014 246 246 246
-0.141331 -1.92633 12.0342 0.638102 0.264617 -0.723051 255 255 255
-0.0850228 -1.95143 12.0709 0.57925 0.118494 -0.806492 255 255 255
-0.0535253 -1.89462 12.1269 0.676801 -0.0474674 -0.734634 217 217 217
-0.0430446 -1.90618 12.1073 0.628418 0.114818 -0.769356 199 199 199
-0.0248642 -1.95783 12.1124 0.518596 0.204715 -0.830151 113 113 113
-0.00357316 -1.95519 12.1325 0.16396 0.25425 -0.953139 23 23 23
0.0291008 -1.89682 12.1426 0.2611 0.146268 -0.954166 0 0 0
0.0943659 -1.89718 12.1626 0.790671 0.126191 -0.599096 0 0 0
0.476291 -1.92409 12.2506 -0.600151 0.175656 -0.780361 29 29 29
0.893583 -1.93651 12.3897 -0.238875 0.0929319 -0.966593 0 0 0
0.958342 -1.94175 12.3953 -0.343232 0.235494 -0.909249 0 0 0
1.07542 -1.93589 12.3716 -0.777644 0.111877 -0.618671 80 80 80
1.14108 -1.92242 12.3181 -0.576886 0.228944 -0.784084 249 249 249
1.09049 -1.91683 12.3936 -0.642197 0.1037 -0.759493 159 159 159
1.16333 -1.91169 12.3436 -0.618579 0.0837417 -0.781247 254 254 254
1.22929 -1.92101 12.2343 -0.51623 -0.460263 -0.722263 255 255 255
1.34128 -1.94711 12.1863 -0.156988 -0.51682 -0.841577 255 255 255
1.41049 -1.94044 12.1619 -0.177016 -0.517832 -0.836968 253 253 253
1.34738 -1.88595 12.1641 -0.178378 -0.519594 -0.835586 255 255 255
1.41821 -1.92089 12.1618 -0.113318 -0.513551 -0.850544 255 255 255
-2.3415 -1.95214 12.6003 -0.0337823 0.900073 -0.434428 255 255 255
-2.23178 -1.93297 12.68 0.0626239 0.903293 -0.424429 255 255 255
-2.14538 -1.98319 12.7239 -0.0623173 0.87447 -0.481059 237 237 237
-2.08053 -1.96355 12.7921 0.119462 0.603626 -0.788267 26 26 26
-2.00585 -2.00052 12.7604 0.0874839 0.572648 -0.81512 10 10 10
-1.83872 -1.97664 12.7749 0.661596 0.681497 -0.312812 15 15 15
-0.962954 -1.89789 12.1393 0.155256 -0.774759 -0.612898 255 255 255
-0.793954 -1.8184 11.9282 0.15121 -0.76162 -0.630135 255 255 255
-0.793954 -1.8184 11.9282 0.15121 -0.76162 -0.630135 255 255 255
-0.793954 -1.8184 11.9282 0.15121 -0.76162 -0.630135 255 255 255
-0.681304 -1.81526 11.816 0.162802 -0.758833 -0.630609 255 255 255
-0.602007 -1.82152 11.8798 0.276168 -0.494721 -0.824004 254 254 254
-0.547317 -1.85251 11.9507 0.543973 0.106367 -0.832334 216 216 216
-0.484279 -1.82951 12.0085 -0.055487 0.251009 -0.966393 135 135 135
-0.415553 -1.88568 12.0391 -0.562999 -0.408061 -0.718692 0 0 0
-0.380946 -1.82245 12.0076 -0.289576 -0.328422 -0.899047 1 1 1
-0.302275 -1.82476 11.9976 -0.0061221 -0.142537 -0.989771 0 0 0
-0.239775 -1.82808 12.0147 -0.0463976 0.0910362 -0.994766 14 14 14
-0.163351 -1.85811 12.0883 0.789352 0.340854 -0.510629 248 248 248
-0.0982892 -1.88017 12.0651 0.705049 0.0713708 -0.705558 255 255 255
0.0592439 -1.83038 12.1095 -0.523722 0.271864 -0.807345 0 0 0
0.396269 -1.90054 12.2359 -0.444535 0.00143687 -0.89576 0 0 0
0.436587 -1.86789 12.2838 -0.574141 -0.0230248 -0.818432 0 0 0
0.862062 -1.87295 12.3931 -0.0620639 -0.328632 -0.942417 0 0 0
1.00015 -1.87587 12.4466 -0.811714 0.0908713 -0.576942 0 0 0
0.991318 -1.88765 12.4317 -0.348573 0.253696 -0.902294 0 0 0
1.0533 -1.8595 12.4264 -0.651965 0.0977924 -0.751916 66 66 66
1.12644 -1.85451 12.376 -0.250035 0.0257403 -0.967895 248 248 248
1.19713 -1.83364 12.0894 -0.815221 0.0874999 -0.572502 255 255 255
1.41505 -1.85661 12.1755 -0.171344 -0.394363 -0.90284 255 255 255
-2.37278 -1.89757 12.7616 0.0871204 0.921459 -0.378581 254 254 254
-2.16612 -1.9224 12.8123 0.105786 0.800549 -0.589857 85 85 85
-1.93567 -1.90229 12.8177 0.498306 0.803998 -0.324467 22 22 22
-1.83487 -1.95079 12.9197 0.867152 -0.240513 -0.43612 195 195 195
-1.76392 -1.92883 12.9339 0.85409 -0.0830119 -0.513458 254 254 254
-0.913309 -1.77332 11.6452 -0.280456 -0.642941 -0.712721 255 255 255
-0.832552 -1.75211 11.6271 -0.26158 -0.577005 -0.773719 255 255 255
-0.684652 -1.75022 11.7993 -0.108078 -0.757745 -0.643539 255 255 255
-0.58034 -1.74737 11.9217 0.781712 0.0341494 -0.622705 255 255 255
-0.551051 -1.76259 11.8903 0.846251 0.146856 -0.512145 254 254 254
-0.408547 -1.7727 11.9971 -0.30847 -0.177646 -0.934499 37 37 37
-0.340001 -1.76971 11.9923 0.058354 0.0342914 -0.997707 0 0 0
-0.342571 -1.77375 11.9917 0.0373446 0.00466958 -0.999292 0 0 0
-0.269932 -1.76801 12.001 0.0975547 0.0662232 -0.993024 0 0 0
-0.205306 -1.76921 12.0167 0.119297 0.183565 -0.975742 11 11 11
-0.143767 -1.76936 12.0462 0.415772 0.135021 -0.89939 175 175 175
-0.0883516 -1.79884 12.0738 0.610466 0.0617171 -0.789634 254 254 254
0.0180873 -1.776 12.189 0.578312 0.103387 -0.809238 1 1 1
0.0628545 -1.77898 12.2343 0.0630627 0.270194 -0.960738 0 0 0
0.130007 -1.77047 12.1868 0.176042 0.136045 -0.974936 0 0 0
0.23714 -1.79122 12.2183 0.876349 -0.00437281 -0.481657 72 72 72
0.366582 -1.78254 12.2613 -0.12304 0.324852 -0.937727 0 0 0
0.433841 -1.82455 12.2812 -0.616754 -0.135086 -0.775478 0 0 0
0.941777 -1.82814 12.4544 -0.619257 0.174312 -0.765596 0 0 0
1.00387 -1.80404 12.4321 -0.671766 0.174731 -0.719861 2 2 2
1.1419 -1.7824 12.2532 -0.819568 0.1179 -0.56072 255 255 255
1.44313 -1.782 11.965 -0.0253551 -0.499743 -0.865802 255 255 255
-2.23882 -1.80904 12.8357 0.101417 0.724329 -0.681955 14 14 14
-2.14104 -1.8464 12.7995 0.144315 0.76638 -0.625967 1 1 1
-2.07472 -1.8343 12.9147 0.215218 0.462848 -0.859915 3 3 3
-2.03171 -1.84849 12.8645 0.512511 0.707762 -0.486215 4 4 4
-2.05749 -1.82917 12.915 0.403329 0.738521 -0.540289 12 12 12
-1.95376 -1.84706 12.9582 0.408874 0.847782 -0.337768 209 209 209
-1.92571 -1.86541 12.9551 0.409284 0.847755 -0.33734 223 223 223
-0.595359 -1.66092 11.5435 0.841836 0.340182 -0.419033 255 255 255
-0.450039 -1.71735 12.0171 -0.371357 0.0588371 -0.926624 239 239 239
-0.452778 -1.71881 12.0243 -0.369832 0.0734294 -0.926193 241 241 241
-0.442887 -1.71457 12.0142 -0.360825 0.0658925 -0.930303 229 229 229
-0.374331 -1.71382 11.9973 -0.173997 0.0801924 -0.981476 32 32 32
-0.307782 -1.71298 12.0084 0.137473 0.299774 -0.944053 0 0 0
-0.243175 -1.71164 12.0234 0.137981 0.244061 -0.959893 0 0 0
-0.175809 -1.70937 12.0284 0.289902 0.1965 -0.936667 11 11 11
-0.11723 -1.71176 12.0727 0.629795 0.181842 -0.755177 183 183 183
-0.0965647 -1.72708 12.0784 0.625098 0.0973618 -0.77445 240 240 240
-0.0382936 -1.75108 12.1632 0.648432 0.000804454 -0.761272 110 110 110
0.00537512 -1.71103 12.2287 0.633064 -0.120392 -0.76468 0 0 0
0.0954982 -1.71951 12.2337 0.606832 0.435635 -0.664814 0 0 0
0.279866 -1.74727 12.2634 0.519212 0.109103 -0.847653 1 1 1
0.220979 -1.72343 12.2329 0.826364 -0.115507 -0.551163 94 94 94
0.37701 -1.7099 12.2572 -0.780295 0.256867 -0.570227 0 0 0
0.384527 -1.71975 12.2591 0.0509784 0.873556 -0.484047 0 0 0
0.384466 -1.71958 12.2588 0.05098 0.874187 -0.482907 0 0 0
0.377629 -1.70138 12.2258 -0.355143 0.431636 -0.829194 0 0 0
0.485959 -1.76131 12.2393 -0.317739 0.403922 -0.85784 81 81 81
0.552906 -1.76198 12.2207 -0.35788 0.272756 -0.893043 38 38 38
0.619242 -1.76377 12.343 0.695957 0.213348 -0.685658 0 0 0
0.677441 -1.71049 12.3007 0.630693 0.109951 -0.768204 0 0 0
0.823363 -1.76515 12.3878 -0.402814 -0.121095 -0.907236 12 12 12
1.03573 -1.74074 12.4179 -0.814711 0.0838951 -0.573766 68 68 68
1.06483 -1.77123 12.3907 -0.421112 0.20587 -0.883336 155 155 155
1.13906 -1.75851 12.3548 -0.747457 0.106863 -0.655659 255 255 255
1.18094 -1.72547 12.3331 -0.597845 -0.104378 -0.794787 255 255 255
-2.23542 -1.7454 12.922 -0.201803 0.819671 -0.536111 0 0 0
-2.1459 -1.78673 12.9155 0.0583078 0.844301 -0.532687 0 0 0
-2.01799 -1.79128 12.9388 0.370356 0.862877 -0.343919 181 181 181
-1.89355 -1.78144 12.9454 -0.140922 0.860578 -0.489435 254 254 254
-1.8985 -1.78677 12.9521 -0.115225 0.871599 -0.476486 254 254 254
-0.554557 -1.66653 12.0265 0.823801 0.384083 -0.416932 255 255 255
-0.481972 -1.66057 12.0225 -0.222917 0.336336 -0.914979 254 254 254
-0.490733 -1.6649 12.0523 -0.527166 0.452695 -0.719141 254 254 254
-0.488536 -1.66302 12.0276 -0.318801 0.349906 -0.88087 254 254 254
-0.412456 -1.6575 12.0062 0.0583854 0.247027 -0.967248 220 220 220
-0.411656 -1.65797 12.0078 0.0414315 0.26215 -0.964137 217 217 217
-0.34538 -1.65738 12.0203 0.238179 0.253043 -0.937678 12 12 12
-0.286806 -1.65836 12.0619 0.493765 0.184418 -0.849815 0 0 0
-0.213971 -1.65415 12.0423 0.127586 0.323472 -0.937597 0 0 0
-0.146883 -1.65212 12.0484 0.52683 0.202044 -0.825608 19 19 19
-0.0863125 -1.64458 12.1772 0.7091 0.00605188 -0.705082 228 228 228
-0.0384737 -1.68322 12.2119 0.695337 -0.0190931 -0.71843 61 61 61
0.215485 -1.6367 12.2294 0.858332 0.0696641 -0.508344 91 91 91
0.262999 -1.68037 12.2857 0.80773 0.0156398 -0.589346 9 9 9
0.400724 -1.64758 12.2803 0.419988 0.254083 -0.871236 0 0 0
0.424299 -1.66758 12.211 0.685688 0.488897 -0.53927 0 0 0
0.606958 -1.68859 12.3514 0.608968 0.0883454 -0.788259 0 0 0
0.55065 -1.65644 12.3431 0.155974 -0.0503718 -0.986476 1 1 1
0.780453 -1.69875 12.4126 -0.447823 0.180985 -0.875614 70 70 70
0.856597 -1.70185 12.3688 -0.2374 -0.208138 -0.948852 0 0 0
0.920363 -1.70967 12.4078 -0.201051 0.0821944 -0.976126 0 0 0
1.09105 -1.70292 12.4137 -0.778565 0.0681018 -0.623857 244 244 244
1.12123 -1.65146 12.2712 -0.551503 0.00862689 -0.834129 254 254 254
1.15916 -1.64908 12.2797 -0.777017 0.171864 -0.605564 255 255 255
1.18824 -1.6421 12.132 -0.747434 -0.0131374 -0.664206 255 255 255
-2.34057 -1.72317 13.2188 -0.000969194 0.911686 -0.410887 1 1 1
-2.20948 -1.73745 13.0214 0.0237132 0.712476 -0.701295 6 6 6
-2.14261 -1.73354 13.0322 0.341228 0.872518 -0.34968 102 102 102
-2.13408 -1.70793 13.0902 0.0454616 0.837124 -0.545121 219 219 219
-2.04501 -1.7204 12.9983 -0.205797 0.613834 -0.762138 250 250 250
-2.022 -1.7263 13.0996 0.188958 0.902668 -0.386633 254 254 254
-1.98583 -1.71811 13.0771 0.921171 -0.0628532 -0.38405 255 255 255
-1.98602 -1.7182 13.0778 0.927074 -0.0631175 -0.369526 255 255 255
-0.50812 -1.59622 11.9648 0.390248 0.245553 -0.887361 255 255 255
-0.447183 -1.59931 12.0001 0.195141 0.25365 -0.947408 254 254 254
-0.382475 -1.59827 12.0174 0.357687 0.197091 -0.912806 185 185 185
-0.321451 -1.59864 12.0497 0.424582 0.190509 -0.88512 4 4 4
-0.259107 -1.60519 12.1005 0.0423958 0.329472 -0.943213 0 0 0
-0.17911 -1.59158 12.0836 0.213974 0.31867 -0.923399 0 0 0
-0.112507 -1.60134 12.0821 0.555358 0.190778 -0.809433 74 74 74
-0.1103 -1.58997 12.0875 0.502384 0.153806 -0.850855 74 74 74
0.0131866 -1.64233 12.2853 0.732103 0.0224104 -0.680825 0 0 0
-0.0442024 -1.59796 12.2403 0.325642 0.0879376 -0.941395 53 53 53
0.0651199 -1.58542 12.2062 0.862817 0.0423333 -0.503741 0 0 0
0.407423 -1.58318 12.3177 0.775019 0.451832 -0.441808 1 1 1
0.53884 -1.57949 12.3453 0.691274 0.00674032 -0.722561 8 8 8
0.48952 -1.58149 12.3187 0.283148 0.116209 -0.95201 87 87 87
0.608183 -1.60832 12.3068 0.565092 0.0145286 -0.8249 0 0 0
0.669627 -1.63358 12.2793 0.423468 0.345046 -0.837626 0 0 0
0.698785 -1.60829 12.4472 -0.0805544 0.0205887 -0.996538 9 9 9
0.7401 -1.60657 12.4325 -0.499147 0.087756 -0.862062 84 84 84
0.806164 -1.60816 12.4469 0.028188 0.0395512 -0.99882 4 4 4
0.870036 -1.6146 12.4523 -0.481901 0.398349 -0.780442 0 0 0
0.893828 -1.63863 12.3493 -0.505585 0.17874 -0.844059 0 0 0
1.00218 -1.57914 12.3777 -0.745502 0.084255 -0.661156 37 37 37
1.0424 -1.63964 12.4048 -0.775284 0.0483583 -0.629758 146 146 146
-2.29454 -1.63486 13.1302 0.12124 0.912589 -0.39049 110 110 110
-2.13587 -1.67402 13.1236 0.187446 0.906816 -0.377557 252 252 252
-2.04175 -1.69218 13.1555 0.50862 0.623574 -0.593684 254 254 254
-0.570744 -1.54713 12.204 -0.620213 -0.206439 -0.756782 255 255 255
-0.473222 -1.53021 11.9866 0.442401 0.226201 -0.867822 255 255 255
-0.416813 -1.53601 12.0348 0.0794344 0.270822 -0.959346 253 253 253
-0.361395 -1.54319 12.0645 -0.307424 0.321914 -0.895467 132 132 132
-0.289754 -1.53687 12.0475 -0.230071 0.329144 -0.915823 1 1 1
-0.211602 -1.53217 12.0697 0.555717 0.244326 -0.79466 0 0 0
-0.142768 -1.53053 12.0729 0.567738 0.241922 -0.786859 2 2 2
-0.0748564 -1.54411 12.1369 -0.181599 0.199093 -0.963008 174 174 174
0.0115439 -1.5584 12.2648 0.780614 -0.140673 -0.608977 0 0 0
-0.0281176 -1.50955 12.2344 0.57217 0.00165766 -0.820133 20 20 20
0.124068 -1.54107 12.2326 0.681535 0.0848473 -0.72685 0 0 0
0.384089 -1.55189 12.3255 0.738084 0.122917 -0.663418 0 0 0
0.596606 -1.52569 12.3177 0.719166 0.0853967 -0.689571 0 0 0
0.55413 -1.5762 12.3742 0.640398 0.339873 -0.68875 0 0 0
0.600347 -1.54597 12.3459 -0.591216 0.303592 -0.747192 0 0 0
0.654635 -1.5599 12.3484 0.774652 0.0293284 -0.631707 0 0 0
0.780232 -1.54349 12.4036 -0.612843 0.00858672 -0.790158 26 26 26
0.856898 -1.53774 12.3583 -0.635905 0.0294504 -0.771205 0 0 0
0.883934 -1.53052 12.362 -0.270965 -0.0330423 -0.962022 0 0 0
1.06223 -1.54275 12.3952 -0.762925 0.0747598 -0.64215 234 234 234
1.15554 -1.56243 12.34 -0.77934 0.0083769 -0.626545 255 255 255
1.17177 -1.53878 12.3287 -0.794674 0.0797957 -0.601769 255 255 255
1.17177 -1.53878 12.3287 -0.794674 0.0797957 -0.601769 255 255 255
-2.2181 -1.60276 13.1903 -0.0517667 0.881541 -0.469261 254 254 254
-0.500377 -1.4704 11.9783 0.0529093 0.51756 -0.854009 255 255 255
-0.506193 -1.47037 11.9675 -0.1394 0.3401 -0.93 255 255 255
-0.452659 -1.48139 12.0538 -0.119801 0.338886 -0.933169 255 255 255
-0.451132 -1.48014 12.0556 -0.133905 0.346406 -0.928478 255 255 255
-0.381465 -1.48064 12.0625 0.0561894 0.29381 -0.954211 227 227 227
-0.318091 -1.47994 12.073 0.134975 0.295981 -0.945609 19 19 19
-0.323647 -1.48627 12.0826 -0.354486 0.259393 -0.898362 23 23 23
-0.253637 -1.48123 12.0924 0.101083 0.292948 -0.95077 0 0 0
-0.175823 -1.46869 12.1089 0.855395 0.233093 -0.462566 0 0 0
0.0264872 -1.47295 12.2853 0.829325 -0.0890795 -0.551621 0 0 0
0.282026 -1.45248 12.3465 -0.102475 0.176565 -0.97894 0 0 0
0.386883 -1.47125 12.3199 0.843617 -0.05603 -0.534014 0 0 0
0.515811 -1.45546 12.3813 0.623979 -0.116692 -0.772679 9 9 9
0.512028 -1.50201 12.3432 0.446667 0.356259 -0.820712 27 27 27
0.570336 -1.49092 12.3594 0.49759 0.183679 -0.847742 0 0 0
0.629418 -1.45022 12.3503 0.228248 0.335204 -0.914079 0 0 0
0.792829 -1.47338 12.3863 0.645529 0.461703 -0.608377 9 9 9
0.912228 -1.45096 12.4056 0.617372 0.138952 -0.774303 0 0 0
1.01044 -1.48427 12.4151 -0.773866 0.0571485 -0.630765 111 111 111
0.963244 -1.4691 12.4273 -0.770962 0.0816851 -0.631621 5 5 5
1.06705 -1.44757 12.3939 -0.776914 0.0586494 -0.626869 251 251 251
1.11259 -1.50446 12.3555 -0.762415 0.0548067 -0.644763 255 255 255
-0.487901 -1.42789 12.1077 -0.0604445 0.286475 -0.956179 255 255 255
-0.455393 -1.37332 12.1793 -0.464459 0.206493 -0.861184 255 255 255
-0.451751 -1.37264 12.1266 -0.374123 0.263329 -0.889207 255 255 255
-0.453369 -1.36915 12.1126 -0.275962 0.296298 -0.914359 255 255 255
-0.495146 -1.37245 12.1651 -0.389144 0.209482 -0.897042 255 255 255
-0.418105 -1.42675 12.088 -0.144499 0.345668 -0.927164 255 255 255
-0.381228 -1.36977 12.1202 -0.379374 0.305546 -0.873337 241 241 241
-0.388018 -1.37011 12.1092 -0.159185 0.300502 -0.940404 248 248 248
-0.354002 -1.42448 12.0863 0.00129628 0.416121 -0.909308 163 163 163
-0.345918 -1.42329 12.0869 -0.0428998 0.352771 -0.934726 124 124 124
-0.290532 -1.42678 12.1142 0.318314 0.363547 -0.875505 1 1 1
-0.290775 -1.42643 12.1114 0.301543 0.369293 -0.87903 1 1 1
-0.262822 -1.36886 12.136 0.325181 0.254537 -0.910751 0 0 0
-0.234401 -1.4332 12.1727 0.326975 0.440034 -0.836336 0 0 0
-0.231387 -1.43091 12.1713 0.61849 0.196337 -0.760869 0 0 0
-0.166216 -1.42324 12.1293 0.847415 0.267439 -0.458656 0 0 0
-0.102974 -1.37507 12.2598 -0.495439 0.301061 -0.814802 66 66 66
-0.0282385 -1.43664 12.2323 0.455102 0.351262 -0.818228 18 18 18
0.0378065 -1.37622 12.254 0.783373 0.0836258 -0.615901 0 0 0
0.0782404 -1.42565 12.3007 0.220036 0.474423 -0.852354 0 0 0
0.151057 -1.42051 12.2675 0.866538 -0.113147 -0.486117 7 7 7
0.218743 -1.42704 12.3079 0.618375 0.268223 -0.738694 62 62 62
0.454819 -1.38045 12.3281 0.386816 0.156004 -0.908865 78 78 78
0.428288 -1.43914 12.2965 0.593681 0.264901 -0.759849 15 15 15
0.522212 -1.38031 12.3359 0.154361 0.124739 -0.980108 2 2 2
0.573371 -1.41787 12.4001 0.621574 -0.0479746 -0.781885 0 0 0
0.629751 -1.43233 12.3341 0.388401 0.397908 -0.831152 0 0 0
0.846026 -1.42747 12.3856 0.557337 0.0413641 -0.829256 0 0 0
0.910063 -1.42867 12.4292 0.448711 0.178465 -0.875676 0 0 0
0.953297 -1.39473 12.5107 -0.557492 -0.00897668 -0.830134 5 5 5
1.02361 -1.38929 12.4535 -0.770509 0.133943 -0.623198 202 202 202
1.13214 -1.39679 12.2775 -0.779559 0.0450874 -0.624704 255 255 255
-0.516881 -1.32569 12.3605 -0.45974 0.208119 -0.863322 255 255 255
-0.417341 -1.31432 12.1985 -0.674568 0.170061 -0.718357 254 254 254
-0.414383 -1.31165 12.1133 0.0325174 0.268745 -0.962662 255 255 255
-0.340628 -1.30959 12.1275 -0.353958 0.279756 -0.892441 132 132 132
-0.35171 -1.31396 12.1221 -0.116085 0.287585 -0.950694 178 178 178
-0.236985 -1.30833 12.2397 -0.0892168 0.207782 -0.974098 0 0 0
-0.155401 -1.34182 12.2213 0.565337 0.0330472 -0.824198 0 0 0
-0.0126669 -1.33833 12.2949 0.310944 0.250829 -0.916733 0 0 0
0.0736638 -1.33191 12.3434 0.617184 0.458257 -0.639597 0 0 0
0.182259 -1.36907 12.3089 0.261373 0.26021 -0.929502 88 88 88
0.216066 -1.31241 12.3373 0.586496 0.262915 -0.766093 72 72 72
0.243251 -1.37559 12.3902 0.854826 -0.154765 -0.495298 3 3 3
0.280555 -1.34139 12.4139 0.819388 -0.209454 -0.533603 0 0 0
0.583551 -1.35149 12.3728 0.0545931 0.522895 -0.850647 0 0 0
0.693311 -1.36058 12.3665 0.85503 -0.0197461 -0.518203 23 23 23
0.868736 -1.34963 12.4309 0.407491 -0.672015 -0.618342 0 0 0
0.988451 -1.33278 12.4859 -0.11273 0.00878637 -0.993587 146 146 146
1.06483 -1.3031 12.32 -0.757595 0.23925 -0.607297 255 255 255
1.13703 -1.29891 12.2827 -0.778001 0.0044544 -0.628248 255 255 255
-0.465439 -1.25715 12.2703 -0.683306 0.137697 -0.71703 255 255 255
-0.31262 -1.23617 12.1345 -0.418554 0.151473 -0.895471 38 38 38
-0.246129 -1.23755 12.1512 -0.257547 0.150619 -0.954454 0 0 0
-0.198837 -1.24771 12.228 0.455773 0.195725 -0.86831 0 0 0
-0.0513216 -1.27382 12.3182 0.540555 0.262091 -0.799443 16 16 16
0.0829059 -1.27593 12.3553 -0.708509 0.25577 -0.657721 0 0 0
0.250688 -1.25915 12.3819 0.70875 0.315724 -0.630866 1 1 1
0.596485 -1.29222 12.428 -0.648613 0.192167 -0.73646 0 0 0
0.612368 -1.29358 12.406 0.309976 0.216944 -0.925662 0 0 0
0.693451 -1.29593 12.4526 -0.465689 0.565265 -0.680889 35 35 35
0.784691 -1.25153 12.4362 -0.129526 0.628411 -0.767022 3 3 3
0.833892 -1.29406 12.4754 0.0704454 0.255259 -0.964303 0 0 0
0.887637 -1.27799 12.4495 -0.213927 0.560245 -0.800225 0 0 0
0.900988 -1.29606 12.4852 -0.139915 0.0984285 -0.985259 1 1 1
0.963086 -1.26395 12.4351 -0.384549 0.187934 -0.903771 144 144 144
1.02898 -1.24936 12.3897 -0.528511 0.228573 -0.817576 254 254 254
-0.47998 -1.18466 12.1805 -0.63596 0.112341 -0.763501 255 255 255
-0.385888 -1.22039 12.1582 -0.279128 0.196016 -0.940035 249 249 249
-0.342682 -1.17643 12.1634 -0.337013 0.204409 -0.919043 131 131 131
-0.276223 -1.17656 12.1402 -0.384906 0.190669 -0.903046 0 0 0
-0.22429 -1.18907 12.2641 0.629253 0.0866122 -0.772359 0 0 0
-0.181445 -1.22623 12.2323 0.865232 0.129509 -0.484357 0 0 0
-0.0817705 -1.20627 12.3109 0.357941 0.210312 -0.909751 76 76 76
0.0129268 -1.20729 12.2601 -0.36153 0.267451 -0.893177 0 0 0
0.0548108 -1.21692 12.3385 -0.00815082 0.158727 -0.987289 0 0 0
0.131904 -1.21566 12.2949 0.625166 0.158096 -0.764312 4 4 4
0.190366 -1.24018 12.3362 0.603462 0.216697 -0.767383 128 128 128
0.290186 -1.19723 12.3716 0.79228 -0.0129398 -0.61002 0 0 0
0.575161 -1.23625 12.4249 0.736762 -0.184863 -0.65039 0 0 0
0.653064 -1.24043 12.4772 -0.31509 0.327542 -0.890749 1 1 1
0.72582 -1.23772 12.4646 0.108788 0.292191 -0.950153 87 87 87
0.86314 -1.18981 12.4642 -0.312162 0.233311 -0.920935 130 130 130
0.825789 -1.19834 12.4811 0.623326 0.169501 -0.76337 130 130 130
0.928899 -1.19174 12.4619 -0.396143 0.140574 -0.907364 147 147 147
0.995144 -1.19072 12.4225 -0.548746 0.240444 -0.800664 246 246 246
1.06359 -1.16896 12.3004 -0.815208 0.0553727 -0.576515 255 255 255
1.13513 -1.20161 12.2987 -0.776653 0.126493 -0.617098 255 255 255
-0.437871 -1.16106 12.2298 -0.728303 0.187858 -0.659002 255 255 255
-0.407831 -1.1577 12.1432 0.417595 0.209755 -0.884091 255 255 255
-0.349894 -1.16165 12.1629 -0.27177 0.218741 -0.937173 163 163 163
-0.306078 -1.1161 12.1654 -0.337178 0.213306 -0.916958 16 16 16
-0.313565 -1.10323 12.1692 -0.415141 0.20998 -0.885193 30 30 30
-0.246565 -1.11934 12.173 -0.334431 0.207759 -0.919235 0 0 0
-0.131119 -1.1511 12.3545 -0.17839 0.229775 -0.956755 19 19 19
0.0167644 -1.15928 12.3666 -0.43014 0.419113 -0.799577 0 0 0
0.0810139 -1.15966 12.3834 -0.669331 -0.225147 -0.708029 0 0 0
0.597127 -1.1447 12.4965 -0.416105 0.511439 -0.751856 0 0 0
0.616027 -1.18178 12.4833 -0.0140575 0.218032 -0.975841 0 0 0
0.718569 -1.12252 12.5048 0.0485734 0.184304 -0.981668 161 161 161
0.688077 -1.17962 12.4751 0.242482 0.174779 -0.954282 24 24 24
0.785489 -1.12305 12.5008 -0.14305 0.186208 -0.972041 255 255 255
0.795125 -1.11984 12.4762 -0.200773 -0.13659 -0.970069 255 255 255
0.794369 -1.12491 12.5112 -0.303252 0.288785 -0.908098 255 255 255
0.899651 -1.13321 12.4961 -0.514889 0.432123 -0.740378 254 254 254
0.964895 -1.13105 12.4655 -0.410928 0.302502 -0.860018 254 254 254
0.976603 -1.13137 12.4745 -0.334701 0.276586 -0.900819 255 255 255
1.04288 -1.13285 12.4661 -0.172776 0.32133 -0.931072 255 255 255
1.12141 -1.11508 12.1737 -0.80118 0.0613557 -0.59527 255 255 255
-0.503698 -1.04934 12.2346 0.106793 0.438302 -0.892461 255 255 255
-0.443053 -1.09855 12.1335 0.387011 0.231179 -0.892625 255 255 255
-0.437043 -1.04832 12.251 -0.637671 0.188084 -0.746994 255 255 255
-0.242385 -1.07156 12.2721 0.193193 0.334049 -0.922544 0 0 0
0.0634456 -1.09401 12.3932 0.603002 0.148998 -0.783701 0 0 0
0.128513 -1.11806 12.4062 -0.63092 0.0383233 -0.774901 8 8 8
0.212335 -1.04878 12.3332 -0.749072 -0.00883472 -0.66243 25 25 25
0.291191 -1.10688 12.3741 0.852402 -0.0126468 -0.522734 0 0 0
0.676641 -1.06665 12.5502 -0.690877 0.172347 -0.702129 31 31 31
0.753622 -1.06493 12.5136 -0.261486 0.307399 -0.914949 250 250 250
0.818092 -1.0694 12.5567 -0.283819 0.247481 -0.926391 255 255 255
0.885149 -1.06802 12.5533 -0.57502 0.591783 -0.564928 255 255 255
0.952746 -1.07012 12.5012 -0.392147 0.354293 -0.848939 255 255 255
1.01723 -1.07743 12.5559 0.0944191 0.870044 -0.483847 255 255 255
1.07163 -1.06123 12.2744 -0.818567 0.0539855 -0.571869 255 255 255
-0.470671 -0.989318 12.2675 -0.733404 0.113926 -0.670179 255 255 255
-0.377925 -1.0254 12.2396 -0.680066 0.122136 -0.722906 229 229 229
-0.317336 -0.991923 12.2062 -0.428555 0.28749 -0.856557 28 28 28
-0.257757 -0.995209 12.2113 -0.214056 0.367786 -0.904938 0 0 0
0.0533429 -1.02012 12.3567 -0.231691 0.228634 -0.94554 0 0 0
0.113109 -1.02029 12.3837 -0.60212 0.228454 -0.765023 2 2 2
0.568488 -1.03761 12.5499 0.671952 0.0515091 -0.738801 0 0 0
0.803886 -0.989978 12.4338 -0.757966 0.117403 -0.641641 255 255 255
-0.422169 -0.966792 12.2977 -0.670755 0.181233 -0.719196 254 254 254
-0.352694 -0.936499 12.2345 -0.508629 0.160148 -0.84596 130 130 130
-0.289748 -0.917681 12.2149 -0.423241 0.0219733 -0.905751 0 0 0
-0.273767 -0.928695 12.1997 -0.429237 0.220629 -0.87583 0 0 0
-0.236303 -0.940106 12.312 -0.639809 0.189785 -0.744732 0 0 0
0.0927387 -0.939572 12.4333 -0.560762 0.323553 -0.762141 1 1 1
0.16783 -0.930426 12.3748 -0.744584 0.0534617 -0.665384 144 144 144
0.245225 -0.927869 12.3448 -0.733261 0.179432 -0.655845 0 0 0
0.248061 -0.949463 12.3064 -0.722516 0.220875 -0.655122 0 0 0
0.696535 -0.97928 12.561 -0.75577 0.0585747 -0.652213 105 105 105
0.761058 -0.934721 12.4562 -0.753154 0.0983155 -0.650457 252 252 252
-0.456198 -0.903673 12.3102 -0.689586 0.0184786 -0.723968 255 255 255
-0.391712 -0.875129 12.269 -0.579423 0.050287 -0.813474 234 234 234
-0.275848 -0.860639 12.2982 0.534023 0.159868 -0.830218 0 0 0
-0.260751 -0.875225 12.3264 0.670088 -0.102868 -0.735119 0 0 0
0.147323 -0.86305 12.3857 0.107744 0.170162 -0.979508 89 89 89
0.211931 -0.862779 12.4096 0.526434 0.225585 -0.819743 17 17 17
0.290155 -0.877406 12.3718 0.643454 0.135821 -0.753339 0 0 0
0.619873 -0.887684 12.5272 0.350134 0.187692 -0.917703 0 0 0
0.704411 -0.881005 12.5591 -0.707301 0.0545272 -0.704806 158 158 158
-0.446825 -0.828873 12.3129 -0.685518 0.0943738 -0.721913 255 255 255
-0.33727 -0.841274 12.2619 -0.48811 0.0999711 -0.867038 34 34 34
-0.23921 -0.811872 12.3478 -0.543311 0.274396 -0.793423 0 0 0
0.0470423 -0.804821 12.37 -9.81912e-005 0.257084 -0.966389 0 0 0
0.115808 -0.80515 12.3754 0.279102 -0.0176021 -0.9601 10 10 10
0.187797 -0.794375 12.3828 0.112874 0.0613232 -0.991715 84 84 84
0.182824 -0.805302 12.3882 0.401345 0.0323213 -0.915357 106 106 106
0.183237 -0.805112 12.3845 0.261107 -0.00280103 -0.965306 106 106 106
0.25041 -0.807733 12.4251 0.564464 0.2117 -0.797849 0 0 0
0.266001 -0.795766 12.3356 -0.495019 0.036636 -0.86811 0 0 0
0.592882 -0.821254 12.4927 0.748482 0.193131 -0.634409 0 0 0
0.651972 -0.828042 12.5659 -0.416689 0.0847374 -0.905091 5 5 5
0.764157 -0.841691 12.5391 -0.30297 0.20395 -0.930921 254 254 254
0.771548 -0.838049 12.4725 -0.75952 0.0328796 -0.649652 255 255 255
0.832093 -0.838678 12.4786 -0.760762 -0.0343707 -0.64812 255 255 255
-0.429386 -0.734041 12.2826 -0.610732 -0.0394224 -0.790856 253 253 253
0.0565271 -0.78123 12.4443 -0.69949 0.240575 -0.672932 0 0 0
0.128837 -0.781642 12.4036 -0.341498 0.154136 -0.927157 38 38 38
0.151022 -0.746202 12.3741 -0.22414 -0.170551 -0.959517 69 69 69
0.212025 -0.744816 12.4132 0.567598 -0.178502 -0.803722 5 5 5
0.224068 -0.736169 12.3755 -0.103206 -0.102532 -0.989361 2 2 2
0.294248 -0.750122 12.4155 0.558732 -0.114489 -0.821408 0 0 0
0.711439 -0.789178 12.5541 -0.505103 -0.259708 -0.823057 193 193 193
0.750638 -0.719211 12.4275 -0.757352 0.0568267 -0.65053 250 250 250
0.750738 -0.719112 12.4258 -0.757346 0.054797 -0.65071 250 250 250
0.750638 -0.719211 12.4275 -0.757352 0.0568267 -0.65053 250 250 250
0.812052 -0.775786 12.4409 -0.237352 0.232008 -0.943311 255 255 255
-0.563056 -0.68915 12.4555 -0.726563 0.135324 -0.673643 255 255 255
-0.450154 -0.684736 12.3542 -0.737301 0.0511604 -0.673625 254 254 254
-0.277034 -0.69931 12.2431 -0.337413 0.212411 -0.917079 0 0 0
-0.24381 -0.708886 12.3854 -0.43993 0.260794 -0.85933 0 0 0
-0.24381 -0.708886 12.3854 -0.43993 0.260794 -0.85933 0 0 0
0.0912313 -0.717719 12.4558 -0.541438 -0.141247 -0.82879 0 0 0
0.166661 -0.718773 12.4002 -0.486852 0.0211784 -0.873228 85 85 85
0.187344 -0.676356 12.3816 0.0454233 0.122507 -0.991428 63 63 63
0.807811 -0.675338 12.3749 -0.802716 0.122287 -0.583689 255 255 255
-0.442597 -0.590732 12.3554 -0.727319 -0.00159399 -0.686298 244 244 244
-0.267646 -0.646131 12.3832 -0.369603 0.257963 -0.892664 0 0 0
-0.134794 -0.637144 12.3829 0.629239 -0.193059 -0.752852 73 73 73
-0.0705986 -0.637804 12.4343 0.705758 0.225452 -0.671622 1 1 1
0.000971172 -0.62093 12.4015 -0.580377 0.0343575 -0.813623 0 0 0
0.0594384 -0.635471 12.3747 0.832593 -0.272973 -0.481948 0 0 0
0.122894 -0.634513 12.3886 -0.100623 0.111144 -0.988697 54 54 54
0.196306 -0.652186 12.4164 -0.501303 0.119804 -0.856938 29 29 29
0.26923 -0.633843 12.3319 -0.70943 0.196939 -0.676701 0 0 0
0.782235 -0.602512 12.4485 0.143932 0.292904 -0.945247 255 255 255
-0.54909 -0.58678 12.421 -0.682559 0.0569932 -0.728605 255 255 255
-0.284391 -0.573032 12.304 -0.0496236 0.262931 -0.963538 0 0 0
-0.238119 -0.57733 12.3716 0.301534 0.225581 -0.926386 0 0 0
-0.169656 -0.578239 12.3935 0.337292 0.0674822 -0.938978 21 21 21
-0.10394 -0.577704 12.4041 0.114031 0.154178 -0.981441 43 43 43
-0.0335928 -0.575404 12.357 -0.545937 0.0764357 -0.834333 0 0 0
0.0109728 -0.552289 12.4007 -0.0212743 0.183316 -0.982824 0 0 0
0.0769776 -0.553609 12.4591 -0.775752 0.130799 -0.617334 2 2 2
0.157746 -0.576139 12.3949 -0.0444284 0.156275 -0.986714 118 118 118
0.23404 -0.578935 12.3659 -0.366081 -0.0801599 -0.927124 0 0 0
0.23717 -0.573165 12.3424 -0.566353 0.185663 -0.802978 0 0 0
0.61251 -0.555732 12.4294 0.775193 0.0481852 -0.629884 0 0 0
0.741953 -0.541931 12.4913 0.144781 0.167938 -0.975108 252 252 252
0.797442 -0.536099 12.6037 0.194813 0.12645 -0.972655 255 255 255
-0.537855 -0.485851 12.4085 -0.682829 0.0556655 -0.728454 255 255 255
-0.434668 -0.512778 12.3345 -0.69522 -0.0421032 -0.717563 209 209 209
-0.362864 -0.45866 12.3334 -0.571169 0.0836608 -0.816558 13 13 13
-0.329664 -0.517648 12.333 -0.482639 0.138617 -0.86478 0 0 0
-0.299218 -0.46046 12.3827 -0.0541134 0.190759 -0.980144 0 0 0
-0.208153 -0.518712 12.3982 0.229518 0.306017 -0.923945 1 1 1
-0.265818 -0.519666 12.3961 0.145018 0.0566506 -0.987806 0 0 0
-0.177775 -0.459838 12.4172 0.463775 0.316351 -0.827547 43 43 43
-0.177678 -0.459837 12.4174 0.470095 0.318264 -0.823237 43 43 43
-0.138575 -0.518554 12.4109 0.224043 0.319136 -0.920846 114 114 114
-0.111789 -0.459524 12.4446 0.321901 0.31162 -0.89402 70 70 70
-0.108471 -0.459916 12.4366 0.226955 0.354453 -0.907113 62 62 62
-0.0686811 -0.518109 12.416 0.119004 0.33784 -0.93365 3 3 3
0.03697 -0.492182 12.4287 0.351847 0.394179 -0.849015 0 0 0
0.108808 -0.469777 12.4374 0.499698 0.0437935 -0.865092 23 23 23
0.192198 -0.518034 12.406 0.0249528 0.206017 -0.97823 34 34 34
0.248457 -0.478281 12.4077 -0.711565 0.164349 -0.683129 0 0 0
0.608405 -0.467037 12.4718 0.665591 0.169489 -0.726817 0 0 0
0.605145 -0.492726 12.4143 0.359721 0.192979 -0.912885 0 0 0
0.657709 -0.502171 12.4386 0.841789 0.113351 -0.527771 11 11 11
0.674709 -0.496804 12.4887 0.802347 0.13457 -0.58149 49 49 49
-0.359087 -0.451726 12.3643 -0.450762 0.129557 -0.883192 11 11 11
-0.329098 -0.401799 12.3476 0.235669 0.308266 -0.921646 0 0 0
-0.187881 -0.395853 12.3815 0.507399 0.0099919 -0.861653 20 20 20
-0.15301 -0.400181 12.4604 0.761382 0.196214 -0.617898 141 141 141
-0.142637 -0.399433 12.4056 -0.701166 -0.0577324 -0.710657 128 128 128
-0.0381489 -0.448565 12.4928 0.401131 -0.396391 -0.825814 0 0 0
0.0442494 -0.423146 12.4134 0.292868 0.560089 -0.774938 0 0 0
0.209549 -0.412117 12.3959 -0.771306 0.10251 -0.628155 1 1 1
0.649252 -0.411791 12.4749 0.844237 0.0372674 -0.534673 7 7 7
0.7854 -0.447445 12.5181 0.547063 0.114331 -0.829247 255 255 255
0.798421 -0.419723 12.5883 0.501948 -0.0655433 -0.862411 255 255 255
-0.524276 -0.384434 12.3747 -0.726253 0.13089 -0.674851 254 254 254
-0.234647 -0.338148 12.4147 0.178538 0.130535 -0.975236 0 0 0
-0.154321 -0.342436 12.3758 -0.376338 0.289779 -0.879999 132 132 132
-0.0560774 -0.331379 12.4038 0.134786 -0.403919 -0.904811 6 6 6
0.00916756 -0.365607 12.4231 0.128802 0.185184 -0.974226 0 0 0
0.00696655 -0.332458 12.4463 -0.0486753 -0.28434 -0.957487 0 0 0
0.0774142 -0.332612 12.4492 0.142932 -0.526493 -0.838079 2 2 2
0.153471 -0.344446 12.4495 0.572824 0.392027 -0.719852 49 49 49
0.256923 -0.368405 12.4478 -0.0719779 0.0291219 -0.996981 0 0 0
0.449855 -0.365849 12.4551 -0.724722 0.229561 -0.649677 23 23 23
0.684638 -0.363377 12.5164 0.834045 -0.0833785 -0.54536 99 99 99
0.734705 -0.387353 12.5429 0.70894 -0.166283 -0.685386 250 250 250
0.78244 -0.340518 12.6035 0.732695 0.0405842 -0.679345 255 255 255
0.795344 -0.356517 12.5986 0.26033 -0.0788409 -0.962295 255 255 255
-0.198548 -0.277156 12.3999 0.348896 0.281885 -0.893763 45 45 45
-0.0944503 -0.272406 12.3976 -0.00674629 -0.0551907 -0.998453 168 168 168
-0.0259375 -0.272568 12.4097 0.0688756 -0.207492 -0.975809 67 67 67
0.0379826 -0.273652 12.4626 0.556739 -0.668394 -0.493245 81 81 81
0.0397391 -0.273162 12.4389 0.502026 0.131253 -0.854835 89 89 89
0.117434 -0.284236 12.4677 0.4285 -0.0871656 -0.899328 102 102 102
0.181464 -0.283631 12.4792 0.133115 0.204433 -0.969787 34 34 34
0.18436 -0.283892 12.4801 0.127631 0.18921 -0.973607 29 29 29
0.266051 -0.295786 12.4947 -0.25882 -0.10827 -0.959838 0 0 0
0.304062 -0.295695 12.4919 -0.118485 0.1504 -0.981499 0 0 0
0.371395 -0.296132 12.49 0.185356 0.118446 -0.975507 9 9 9
0.489385 -0.305337 12.4547 0.193047 -0.425088 -0.884327 3 3 3
0.565058 -0.30162 12.4921 0.631307 -0.534539 -0.561889 10 10 10
0.650363 -0.304679 12.5074 0.0593021 -0.294485 -0.953814 46 46 46
0.724202 -0.307839 12.5567 0.59051 0.0653776 -0.804377 246 246 246
-0.248145 -0.221406 12.409 -0.0112892 0.509301 -0.860514 115 115 115
-0.118274 -0.205691 12.421 -0.646478 -0.256248 -0.718612 254 254 254
-0.0641791 -0.214263 12.4308 -0.651386 -0.315124 -0.690212 252 252 252
0.0231751 -0.201872 12.4217 0.240754 -0.425057 -0.872562 254 254 254
0.00283132 -0.214661 12.4579 0.308916 0.342029 -0.887461 253 253 253
0.0844588 -0.22368 12.4589 0.376134 -0.0152677 -0.92644 250 250 250
0.0952854 -0.201975 12.4478 0.369167 -0.311203 -0.87571 255 255 255
0.150729 -0.223567 12.4769 0.408926 -0.234551 -0.88191 213 213 213
0.162362 -0.201987 12.4768 0.31845 -0.276352 -0.906763 232 232 232
0.218043 -0.223392 12.4943 -0.0274671 0.114771 -0.993012 103 103 103
0.314174 -0.235534 12.4624 -0.480456 0.665939 -0.57069 8 8 8
0.403483 -0.236131 12.4896 0.749978 0.157632 -0.642406 88 88 88
0.475858 -0.23798 12.4368 -0.1367 -0.20713 -0.968716 185 185 185
0.546486 -0.242193 12.4294 0.487041 -0.19418 -0.851519 195 195 195
0.614416 -0.243091 12.4563 0.449594 -0.347127 -0.823024 212 212 212
0.688295 -0.246506 12.5119 0.549996 -0.269068 -0.790637 249 249 249
0.717954 -0.231133 12.5385 0.474116 -0.226877 -0.85073 254 254 254
0.774925 -0.24623 12.5521 0.357907 0.187821 -0.914673 255 255 255
-0.248402 -0.157092 12.4549 -0.0142845 0.569787 -0.821668 254 254 254
-0.185421 -0.182249 12.4415 -0.209043 0.542778 -0.813445 255 255 255
-0.0861929 -0.1435 12.4473 -0.684961 -0.201607 -0.700131 255 255 255
0.0336348 -0.154511 12.462 0.382474 0.428663 -0.818512 255 255 255
0.0654149 -0.14243 12.4505 0.386812 -0.233889 -0.892005 255 255 255
0.0580589 -0.143666 12.4839 0.451336 0.305297 -0.838504 255 255 255
0.134295 -0.142253 12.4644 0.461412 -0.354392 -0.81333 255 255 255
0.121912 -0.162798 12.4436 0.437605 -0.34179 -0.831674 255 255 255
0.250179 -0.16568 12.5105 -0.160543 0.265324 -0.950699 249 249 249
0.316101 -0.16582 12.5156 -0.428802 0.621638 -0.655511 234 234 234
0.385843 -0.176439 12.493 -0.527535 0.536205 -0.658932 219 219 219
0.451489 -0.179351 12.4591 0.608656 0.401029 -0.684626 253 253 253
0.58557 -0.177115 12.4612 0.832043 -0.125203 -0.540397 255 255 255
0.682948 -0.161066 12.5778 0.831999 -0.0436523 -0.553057 255 255 255
0.652896 -0.177479 12.4942 0.485832 -0.320252 -0.813269 255 255 255
-0.402462 -0.0857161 12.4894 0.476993 0.747723 -0.461939 255 255 255
-0.315442 -0.125461 12.4744 0.11488 0.807127 -0.579093 255 255 255
-0.177123 -0.116153 12.443 0.348255 -0.443075 -0.826077 255 255 255
-0.0706833 -0.0907445 12.8251 0.638343 0.605933 -0.474725 255 255 255
0.083023 -0.0811312 12.5094 0.422922 0.346366 -0.837357 255 255 255
0.0936566 -0.0821251 12.6013 0.250065 0.716514 -0.651211 255 255 255
0.169745 -0.081465 12.5503 0.572446 0.31924 -0.755242 255 255 255
0.217115 -0.10777 12.5415 -0.0428465 -0.0963451 -0.994425 255 255 255
0.221958 -0.12486 12.5082 0.824295 0.261117 -0.50235 254 254 254
0.333324 -0.0960355 12.4662 -0.673007 0.425289 -0.605136 254 254 254
0.54274 -0.11727 12.4069 0.761322 -0.192551 -0.619122 255 255 255
-0.296052 -0.05952 12.3489 0.480292 -0.702923 -0.524613 255 255 255
-0.199448 -0.0563416 12.3923 0.461207 -0.721508 -0.516444 255 255 255
0.8865 -5.7737 11.0049 0.141779 0.988755 -0.0475525 163 163 163
0.84996 -5.81374 11.1657 -0.53324 0.323976 -0.78147 24 24 24
0.919595 -5.78218 11.0798 -0.135092 0.9859 -0.0987495 242 242 242
0.9748 -5.75809 11.0766 -0.232315 0.967322 -0.101578 255 255 255
0.966243 -5.79201 11.075 0.370943 0.91511 -0.158035 254 254 254
0.386961 -5.86907 11.3303 -0.738967 0.400862 -0.541514 255 255 255
0.788708 -5.70221 11.3007 -0.562947 0.309864 -0.766208 7 7 7
-1.10498 -4.65459 9.87718 -0.168484 0.97244 -0.161163 255 255 255
0.607959 -5.55474 11.4087 0.0912644 0.187478 -0.97802 0 0 0
0.28596 -5.51648 11.4253 -0.254497 0.34554 -0.903235 255 255 255
-1.19505 -4.94788 10.514 0.36769 0.421094 -0.829147 255 255 255
-1.12276 -4.91411 10.4533 0.585144 0.183658 -0.789858 255 255 255
-1.33217 -4.85391 10.4105 0.836815 -0.0324017 -0.546527 167 167 167
-1.23238 -4.88899 10.5044 0.414859 0.468385 -0.780069 193 193 193
-0.873564 -5.13737 10.931 0.812863 -0.297074 -0.501 255 255 255
0.279883 -5.46535 11.5307 -0.47898 0.187642 -0.857537 255 255 255
0.275214 -5.46663 11.5096 -0.513733 0.183053 -0.838194 255 255 255
0.381665 -5.37202 11.448 -0.57344 0.24512 -0.781718 255 255 255
0.591143 -5.34714 11.4031 -0.382957 -0.275954 -0.881585 0 0 0
-0.161746 -4.88111 10.7211 0.316469 0.944858 -0.0842052 255 255 255
-0.0854942 -4.92365 10.8233 0.426453 0.890935 -0.156114 255 255 255
-0.0864634 -4.89343 10.7751 0.345173 0.932591 -0.105497 255 255 255
0.0139834 -4.87987 10.7267 0.420815 0.902289 -0.0937519 255 255 255
0.582422 -5.22805 11.3343 -0.239733 0.30991 -0.920046 0 0 0
-0.783326 -4.90173 10.8108 0.505898 -0.0324567 -0.861982 147 147 147
-0.151062 -4.84026 10.775 0.338586 0.92753 -0.158263 255 255 255
-0.499689 -4.89928 10.9757 0.0915357 0.990208 -0.105399 121 121 121
0.0381614 -5.16428 11.4111 -0.0270556 -0.457089 -0.889009 255 255 255
0.368815 -4.99963 11.3579 0.859379 0.319413 -0.399302 255 255 255
0.874205 -4.96898 11.3278 -0.761625 0.360342 -0.538591 255 255 255
-1.31587 -4.56078 10.4453 0.550866 0.389086 -0.738349 255 255 255
-1.00671 -4.69349 10.7919 0.0172868 0.99139 -0.129796 255 255 255
0.264327 -4.94161 11.3539 0.409718 0.547869 -0.729363 255 255 255
0.259866 -4.95816 11.3903 0.770954 0.344487 -0.535686 255 255 255
0.259866 -4.95816 11.3903 0.770954 0.344487 -0.535686 255 255 255
0.259866 -4.95816 11.3903 0.770954 0.344487 -0.535686 255 255 255
0.309804 -4.85648 11.2147 0.781642 0.566038 -0.261984 255 255 255
0.373711 -4.98036 11.3773 0.884809 0.256037 -0.389305 255 255 255
0.449265 -4.98633 11.5031 0.874637 0.116273 -0.470628 3 3 3
-1.32807 -4.65918 10.8914 0.972447 0.031094 -0.231043 255 255 255
-1.13486 -4.65963 10.9126 -0.349194 0.863587 -0.363704 255 255 255
-0.750248 -4.71119 11.017 -0.0522649 0.987523 -0.148545 254 254 254
-0.631855 -4.72202 11.0519 -0.00578629 0.990379 -0.138259 254 254 254
0.295542 -4.84405 11.3674 0.779889 0.537081 -0.32143 254 254 254
0.351832 -4.89647 11.4591 0.779741 -0.222403 -0.58527 254 254 254
-0.644387 -4.66063 11.1057 0.0101793 0.989395 -0.144896 255 255 255
-0.551281 -4.65802 11.0765 0.274704 0.960387 -0.0468516 255 255 255
0.221271 -4.78496 11.475 0.620841 0.74189 -0.25329 4 4 4
0.46091 -4.80734 11.5199 0.874697 -0.0312796 -0.48366 1 1 1
-0.52327 -4.59833 11.0815 0.228329 0.97016 -0.0815819 255 255 255
-0.357987 -4.57555 11.1142 0.205097 0.971284 -0.120596 255 255 255
-0.395973 -4.57433 11.1408 0.518818 0.846547 -0.119104 255 255 255
-0.109967 -4.63827 11.2031 -0.0542056 0.983752 -0.171157 254 254 254
0.0845586 -4.73467 11.4677 0.775313 0.554723 -0.301948 25 25 25
0.149629 -4.71944 11.4797 0.717301 0.644173 -0.265558 1 1 1
-0.278944 -4.59073 11.2401 0.193999 0.972952 -0.125418 255 255 255
-0.189815 -4.57751 11.3252 0.83444 0.504551 -0.221672 255 255 255
-0.0972769 -4.57982 11.3377 0.243821 0.961288 -0.128365 255 255 255
0.0431376 -4.67987 11.4385 0.609304 0.753827 -0.245952 234 234 234
0.43571 -4.6493 11.4906 0.860661 -0.138033 -0.490112 0 0 0
-0.105431 -4.56062 11.4365 0.704073 0.687913 -0.176231 255 255 255
-0.0469977 -4.65152 11.5273 0.346095 0.880706 -0.323381 255 255 255
