ply
format ascii 1.0
element vertex 741
property float x
property float y
property float z
property float nx
property float ny
property float nz
property uchar diffuse_red
property uchar diffuse_green
property uchar diffuse_blue
end_header
-7.95473 0.305183 8.7255 0.564549 -0.755249 -0.33299 220 220 220
-8.02034 0.231043 8.86123 0.621464 -0.645033 -0.444652 255 255 255
-7.88841 -0.63008 8.88439 0.279038 0.0866034 -0.956367 255 255 255
-7.95379 -0.876213 8.98843 -0.040875 -0.212003 -0.976414 255 255 255
-7.95243 -0.876131 8.98879 -0.0417086 -0.195753 -0.979766 255 255 255
-7.89912 -0.906688 8.92916 0.260471 -0.0180367 -0.965313 255 255 255
-7.87824 -0.934009 8.91575 0.304966 -0.0191301 -0.952171 255 255 255
-7.90048 -1.08199 8.99118 -0.179208 0.104478 -0.978248 255 255 255
-7.85696 -1.20089 8.98292 -0.175113 0.0812666 -0.981189 253 253 253
-7.82689 -1.26663 8.97586 -0.153704 0.141927 -0.977871 235 235 235
-7.85853 -1.32751 8.96768 -0.130222 0.0858987 -0.987757 254 254 254
-7.81164 -1.33589 8.97766 -0.153034 0.142144 -0.977945 195 195 195
-7.80737 -1.45669 8.9622 -0.118243 0.0528198 -0.991579 194 194 194
-7.79815 -1.52729 8.97264 -0.189865 0.250376 -0.949349 131 131 131
-7.75416 -1.5927 8.93377 -0.14021 0.170853 -0.975269 81 81 81
-7.72939 -1.7029 8.92826 0.96367 0.0417168 -0.263819 25 25 25
-7.7186 -1.84871 8.94298 0.0875815 0.121443 -0.988727 7 7 7
-7.71517 -1.92132 8.95452 -0.0848164 -0.0315241 -0.995898 1 1 1
-7.7396 -1.97734 8.94996 -0.0567185 -0.113549 -0.991912 18 18 18
-7.67223 -2.02287 8.92653 -0.0391085 -0.178705 -0.983125 6 6 6
-7.63514 -2.12311 8.91829 -0.0622761 -0.0993359 -0.993103 65 65 65
-7.69329 -2.11975 8.91494 -0.121397 0.091691 -0.98836 1 1 1
-7.61441 -2.19304 8.89481 -0.11081 0.0554484 -0.992294 91 91 91
-7.61256 -2.23075 8.90681 0.59743 0.130199 -0.791281 115 115 115
-7.63067 -2.32098 8.88716 0.712181 0.121618 -0.691381 72 72 72
-7.62259 -2.37831 8.88622 0.694441 0.0836391 -0.714672 87 87 87
-7.61588 -2.43569 8.88424 0.698655 0.0522396 -0.71355 97 97 97
-7.60883 -2.49292 8.88198 0.594577 0.0844894 -0.799587 106 106 106
-7.58102 -2.56856 8.89649 -0.161536 0.211329 -0.963974 232 232 232
-7.55745 -2.63568 8.88606 -0.184215 0.152387 -0.971001 251 251 251
-7.5349 -2.7047 8.87982 -0.191668 0.137735 -0.971747 254 254 254
-7.484 -2.76254 8.8504 -0.214445 0.307345 -0.92712 255 255 255
-7.5321 -2.83068 8.8504 0.0988501 0.256631 -0.961441 251 251 251
-7.8675 0.440712 8.59195 0.520604 -0.760408 -0.388266 0 0 0
-7.81896 0.426964 8.61732 0.50452 -0.76185 -0.406257 0 0 0
-7.86811 0.422638 8.64961 0.503976 -0.763332 -0.404146 0 0 0
-7.86811 0.422638 8.64961 0.503976 -0.763332 -0.404146 0 0 0
-7.92367 0.35145 8.76569 0.54388 -0.747659 -0.381051 55 55 55
-7.92088 0.378526 8.69585 0.531482 -0.761226 -0.371568 0 0 0
-7.92412 0.354118 8.76409 0.541344 -0.759778 -0.360116 60 60 60
-7.95228 0.293513 8.85188 0.525197 -0.76011 -0.382623 251 251 251
-7.94486 -0.357886 8.9496 -0.0338669 -0.27327 -0.961341 255 255 255
-7.9371 -0.42242 8.98443 -0.0436353 -0.23933 -0.969957 255 255 255
-7.92678 -0.48486 8.96767 0.494297 0.813565 -0.306241 255 255 255
-7.83253 -0.560349 8.9074 0.943461 0.281235 -0.175469 255 255 255
-7.85853 -0.582742 8.94598 0.715577 0.11513 -0.688981 255 255 255
-7.89247 -0.692515 8.97949 0.0873697 0.0767816 -0.993213 255 255 255
-7.83744 -0.734778 8.93632 0.746403 0.0581411 -0.66295 255 255 255
-7.82411 -0.791444 8.92828 0.880853 0.0318669 -0.472316 255 255 255
-7.83837 -0.857812 8.95464 0.296104 0.1047 -0.9494 255 255 255
-7.83729 -0.857747 8.95525 0.300726 0.0922139 -0.949242 255 255 255
-7.81202 -0.907629 8.96019 0.383914 0.160635 -0.909289 252 252 252
-7.82499 -0.952706 8.93374 0.556509 0.075802 -0.827377 255 255 255
-7.83082 -1.01129 8.94481 0.285753 0.0591144 -0.956478 255 255 255
-7.84535 -1.07384 8.98581 -0.132643 0.0704645 -0.988656 254 254 254
-7.81934 -1.13823 8.98408 -0.147554 0.114403 -0.982415 226 226 226
-7.71698 -1.28616 8.91986 0.113266 0.130444 -0.984965 32 32 32
-7.71277 -1.33656 8.92366 -0.175129 0.0749129 -0.981691 15 15 15
-7.74267 -1.38613 8.93654 0.822981 0.0415852 -0.566545 65 65 65
-7.76853 -1.39885 8.94969 -0.0610227 -0.0431314 -0.997204 116 116 116
-7.74084 -1.50887 8.92707 0.88795 0.0551519 -0.456621 52 52 52
-7.64976 -1.96902 8.927 -0.0867041 -0.0295959 -0.995794 40 40 40
-7.6245 -2.0748 8.92387 -0.0311309 -0.211714 -0.976836 104 104 104
-7.61183 -2.14404 8.92867 -0.150688 0.160281 -0.975502 181 181 181
-7.59563 -2.28449 8.91832 0.285914 0.157776 -0.945177 199 199 199
-7.57539 -2.33934 8.90885 0.0398074 0.118455 -0.992161 237 237 237
-7.56074 -2.39552 8.90171 0.045865 0.0300439 -0.998496 250 250 250
-7.53508 -2.45181 8.90628 -0.180218 0.0898881 -0.979511 255 255 255
-7.51292 -2.57058 8.8885 -0.218313 0.277744 -0.93552 255 255 255
-7.92779 0.246194 8.89867 0.575558 -0.728555 -0.371404 255 255 255
-7.91518 -0.26422 8.99839 0.315327 -0.223195 -0.922363 255 255 255
-7.89549 -0.367042 8.98451 0.207583 0.27973 -0.937369 255 255 255
-7.89261 -0.426651 9.00603 0.146387 0.120273 -0.981889 255 255 255
-7.85844 -0.464358 8.98129 0.455144 0.100509 -0.884727 255 255 255
-7.86969 -0.484744 8.98155 0.24065 0.148081 -0.95925 255 255 255
-7.83612 -0.533338 8.9652 0.600577 0.155401 -0.78432 254 254 254
-7.83912 -0.594029 8.99035 0.190917 0.181516 -0.964678 254 254 254
-7.80941 -0.64401 8.9704 0.693903 0.0718428 -0.716476 253 253 253
-7.80174 -0.700671 8.97084 0.678469 0.0983683 -0.728013 247 247 247
-7.79368 -0.759032 8.9683 0.817989 0.0508089 -0.572986 234 234 234
-7.79888 -0.82122 8.97576 0.526279 0.10553 -0.843738 231 231 231
-7.79643 -0.821379 8.97695 0.577539 0.104119 -0.809696 225 225 225
-7.7626 -0.908382 8.98416 0.755008 0.0845398 -0.650243 74 74 74
-7.75368 -0.964877 8.98205 0.753056 0.0798433 -0.653094 34 34 34
-7.75809 -1.06862 8.96241 0.73639 0.131523 -0.663649 86 86 86
-7.70035 -1.19378 8.96406 0.804095 0.11039 -0.584162 0 0 0
-7.69354 -1.25313 8.96766 0.804506 0.114486 -0.582807 1 1 1
-7.68583 -1.3123 8.96956 0.78936 0.149205 -0.595524 2 2 2
-7.67628 -1.37114 8.97371 0.675593 0.102465 -0.73012 5 5 5
-7.66767 -1.4279 8.97371 0.674046 0.0715817 -0.735213 12 12 12
-7.66057 -1.48459 8.97077 0.692493 0.099612 -0.714514 16 16 16
-7.64984 -1.54049 8.96358 0.617446 0.137552 -0.774493 40 40 40
-7.63947 -1.59562 8.96857 0.688988 0.192154 -0.698837 84 84 84
-7.62449 -1.65084 8.96965 0.760554 0.153823 -0.63079 138 138 138
-7.61456 -1.70866 8.97427 0.836309 0.125638 -0.533669 190 190 190
-7.60756 -1.7699 8.98017 0.883565 0.124687 -0.451404 224 224 224
-7.60513 -1.83613 8.99872 0.982657 0.0374332 -0.181615 248 248 248
-7.58945 -1.97183 8.92753 -0.0636153 -0.113766 -0.991469 207 207 207
-7.57186 -2.03631 8.9786 0.934102 0.0795353 -0.348033 255 255 255
-7.5875 -2.08601 8.94713 -0.173572 0.197282 -0.964859 246 246 246
-7.57358 -2.15743 8.94541 -0.198987 0.168144 -0.96547 253 253 253
-7.54387 -2.17448 8.9682 -0.165769 0.0303271 -0.985698 255 255 255
-7.55675 -2.22947 8.94232 -0.144135 -0.029127 -0.989129 254 254 254
-7.53066 -2.24592 8.97926 -0.16226 0.0179785 -0.986584 255 255 255
-7.55249 -2.30327 8.96551 -0.145126 -0.0273645 -0.989035 255 255 255
-7.52936 -2.3699 8.97256 -0.175231 0.0630253 -0.982508 255 255 255
-7.48435 -2.45334 8.94098 -0.0756061 -0.183163 -0.980171 255 255 255
-7.47448 -2.58646 8.90377 -0.200725 0.166948 -0.965317 255 255 255
-7.75305 0.453291 8.62466 0.513198 -0.763452 -0.392133 0 0 0
-7.7616 0.429086 8.69871 0.491413 -0.763138 -0.419683 0 0 0
-7.82818 0.362395 8.8161 0.542237 -0.747987 -0.382746 77 77 77
-7.82939 0.362361 8.81691 0.53795 -0.759887 -0.36494 87 87 87
-7.82995 0.362228 8.81738 0.538339 -0.759969 -0.364196 88 88 88
-7.85942 0.30392 8.90441 0.545109 -0.75789 -0.358412 253 253 253
-7.8346 -0.167658 8.99484 0.747827 0.191648 -0.63563 255 255 255
-7.82323 -0.220585 8.98903 0.796112 -0.0444892 -0.603512 255 255 255
-7.8671 -0.206133 8.9785 0.803758 0.367459 -0.467917 255 255 255
-7.84698 -0.282184 9.00555 0.504211 -0.00926599 -0.863531 255 255 255
-7.83118 -0.32546 9.01203 0.550214 0.0360593 -0.834245 255 255 255
-7.81771 -0.379735 9.00837 0.63816 0.104749 -0.762745 254 254 254
-7.80547 -0.438212 9.00361 0.825929 0.0905319 -0.556458 237 237 237
-7.7973 -0.494984 9.00468 0.720864 0.120624 -0.682499 205 205 205
-7.81042 -0.484701 9.00825 0.682422 0.104701 -0.723421 234 234 234
-7.78756 -0.55165 9.00801 0.69165 0.170548 -0.701808 158 158 158
-7.79896 -0.540554 9.0084 0.697777 0.145452 -0.701392 205 205 205
-7.78866 -0.596409 9.00888 0.690698 0.134827 -0.710464 146 146 146
-7.77949 -0.612634 9.00696 0.84978 0.0945318 -0.518591 106 106 106
-7.77438 -0.668477 9.00825 0.816026 0.0503945 -0.575814 64 64 64
-7.76638 -0.726879 9.01022 0.810498 0.0689103 -0.581674 38 38 38
-7.76108 -0.78605 9.01 0.775922 0.0992682 -0.62297 22 22 22
-7.75868 -0.781182 9.01569 0.81543 0.0869423 -0.572289 12 12 12
-7.75129 -0.843291 9.008 0.743152 0.141724 -0.653942 8 8 8
-7.7174 -0.930402 9.01386 0.59598 0.0449356 -0.801741 1 1 1
-7.71275 -0.988323 9.0151 0.497038 0.0230189 -0.867423 0 0 0
-7.71866 -1.09055 8.99816 0.459688 0.0645557 -0.885731 1 1 1
-7.69236 -1.13796 9.00772 0.663702 0.137609 -0.735231 3 3 3
-7.67227 -1.1595 8.99941 0.625639 0.0475247 -0.778664 11 11 11
-7.66393 -1.21835 8.99871 0.613213 0.106671 -0.782682 27 27 27
-7.66419 -1.21821 8.99891 0.61323 0.104666 -0.782939 27 27 27
-7.65591 -1.27718 8.99921 0.659232 0.0698315 -0.74869 50 50 50
-7.64445 -1.33389 8.99464 0.79936 -0.021129 -0.60048 86 86 86
-7.63964 -1.33566 8.99346 0.822534 -0.0435448 -0.567047 105 105 105
-7.63152 -1.39255 8.9948 0.882492 -0.0033526 -0.470315 153 153 153
-7.63344 -1.3952 9.00473 0.926372 0.00283106 -0.376599 170 170 170
-7.62614 -1.45183 9.00125 0.924353 0.0174286 -0.381139 205 205 205
-7.61978 -1.50739 9.00115 0.913152 0.149957 -0.379034 211 211 211
-7.61194 -1.56126 9.0075 0.941178 0.165893 -0.294387 241 241 241
-7.60507 -1.61806 9.02598 0.977671 0.118952 -0.173236 254 254 254
-7.59313 -1.67494 9.02465 0.980534 0.0857412 -0.176639 254 254 254
-7.59203 -1.67479 9.02186 0.981638 0.06662 -0.178742 254 254 254
-7.58201 -1.73468 9.01891 0.919926 0.0774341 -0.384371 254 254 254
-7.54265 -1.99554 9.00274 0.981879 0.0553231 -0.181254 255 255 255
-7.47257 -2.17461 8.95644 -0.140137 0.218887 -0.965635 255 255 255
-7.48093 -2.25256 8.97373 -0.0158964 0.275454 -0.961183 255 255 255
-7.4656 -2.29218 8.91864 0.583759 -0.0302146 -0.811364 255 255 255
-7.4347 -2.34744 8.93245 0.0203779 -0.215408 -0.976312 255 255 255
-7.43486 -2.38945 8.91619 -0.0506063 -0.156167 -0.986434 255 255 255
-7.72583 0.445249 8.72998 0.512028 -0.763402 -0.393757 0 0 0
-7.82709 -0.0505096 9.07497 0.588111 0.681475 -0.435566 255 255 255
-7.83714 -0.0979225 9.04265 0.579565 0.488242 -0.652475 255 255 255
-7.8114 -0.140887 9.03476 0.607417 0.09087 -0.789169 255 255 255
-7.80603 -0.195707 9.03341 0.604057 0.0411682 -0.795877 255 255 255
-7.80371 -0.255776 9.03355 0.631474 -0.0450723 -0.774086 255 255 255
-7.8023 -0.310586 9.02898 0.655612 -0.0210624 -0.754804 253 253 253
-7.76398 -0.338461 9.0543 0.733916 0.0465638 -0.677642 38 38 38
-7.78205 -0.405572 9.04666 0.537641 0.132833 -0.832645 66 66 66
-7.77462 -0.462874 9.0459 0.760937 0.0862643 -0.643066 25 25 25
-7.76432 -0.5166 9.04639 0.731595 0.123294 -0.670498 5 5 5
-7.76787 -0.504731 9.04105 0.742686 0.113331 -0.65998 13 13 13
-7.75858 -0.561514 9.0424 0.700001 0.17881 -0.691394 4 4 4
-7.74626 -0.63366 9.03882 0.664008 0.101569 -0.740795 1 1 1
-7.74238 -0.691765 9.04718 0.654433 0.163396 -0.738255 1 1 1
-7.72203 -0.745023 9.04163 0.614439 0.121104 -0.779614 1 1 1
-7.71196 -0.799941 9.04223 0.661719 0.149477 -0.734701 1 1 1
-7.68387 -0.867477 9.04994 0.537608 -0.0020293 -0.843192 19 19 19
-7.66274 -0.97452 9.06395 0.469194 0.0552747 -0.881364 154 154 154
-7.69024 -1.03631 9.02929 0.696108 0.146225 -0.702888 8 8 8
-7.66249 -1.10259 9.04122 0.510885 0.114377 -0.852006 108 108 108
-7.65235 -1.15704 9.04284 0.486566 0.0651495 -0.871212 166 166 166
-7.62669 -1.24082 9.04202 0.890315 0.161951 -0.42557 235 235 235
-7.62673 -1.24073 9.04143 0.88539 0.160902 -0.436113 234 234 234
-7.61968 -1.30272 9.04169 0.854488 0.134424 -0.501777 246 246 246
-7.6087 -1.36406 9.03811 0.772437 0.134613 -0.620662 253 253 253
-7.6225 -1.36659 9.0572 0.982827 0.0254905 -0.182759 253 253 253
-7.54854 -1.76332 9.04927 0.976493 0.126359 -0.174629 255 255 255
-7.38447 -2.26568 8.87799 -0.0397007 -0.254329 -0.966303 255 255 255
-7.38425 -2.26541 8.87199 -0.113159 -0.110529 -0.98741 255 255 255
-7.39032 -2.2864 8.90829 -0.033103 -0.230777 -0.972443 255 255 255
-7.64681 0.447604 8.75274 0.512311 -0.758317 -0.403104 0 0 0
-7.64681 0.447604 8.75274 0.512311 -0.758317 -0.403104 0 0 0
-7.73046 0.376466 8.89543 0.398163 -0.749549 -0.528813 101 101 101
-7.73484 0.372874 8.86781 0.536983 -0.760023 -0.366079 106 106 106
-7.77601 0.313369 8.9707 0.498016 -0.761018 -0.415729 255 255 255
-7.81701 -0.0565634 9.07862 0.443506 0.117238 -0.88857 255 255 255
-7.7854 -0.107769 9.07236 0.638201 0.290438 -0.712984 255 255 255
-7.76843 -0.161935 9.06832 0.647505 0.142431 -0.748633 254 254 254
-7.76032 -0.220414 9.06357 0.825975 0.0341281 -0.562673 214 214 214
-7.73007 -0.308614 9.09178 0.664855 0.0308552 -0.746335 1 1 1
-7.7255 -0.365199 9.08641 0.715863 0.164108 -0.678682 0 0 0
-7.71375 -0.421716 9.08959 0.706891 0.178934 -0.684316 1 1 1
-7.69928 -0.477583 9.08873 0.702428 0.136539 -0.698536 13 13 13
-7.68833 -0.533556 9.08853 0.718212 0.134219 -0.682757 48 48 48
-7.67755 -0.589843 9.08784 0.748899 0.181602 -0.637315 108 108 108
-7.70541 -0.597529 9.0768 0.690532 0.166532 -0.70387 13 13 13
-7.697 -0.653164 9.07283 0.726511 0.0475877 -0.685506 17 17 17
-7.68947 -0.707379 9.07133 0.580128 0.0609768 -0.81224 28 28 28
-7.67495 -0.780687 9.08447 0.418601 0.175633 -0.891025 145 145 145
-7.64853 -0.872961 9.08331 0.321986 0.0543814 -0.945181 228 228 228
-7.67103 -0.92063 9.06893 0.52414 0.0706156 -0.8487 134 134 134
-7.63905 -0.925694 9.07793 0.24009 0.0866426 -0.966876 244 244 244
-7.66151 -0.974395 9.06708 0.439648 0.0538139 -0.896557 169 169 169
-7.60662 -1.01293 9.0522 -0.189121 0.106293 -0.976184 254 254 254
-7.62552 -1.01837 9.06457 -0.190991 0.121999 -0.973981 251 251 251
-7.62327 -1.06502 9.06153 -0.0302284 0.126702 -0.99148 252 252 252
-7.60463 -1.0967 9.05291 -0.186556 0.0940218 -0.977935 254 254 254
-7.58841 -1.15206 9.04767 -0.174075 0.0385198 -0.983979 254 254 254
-7.60428 -1.23248 9.1063 0.850684 0.0840186 -0.51892 255 255 255
-7.58525 -1.32017 9.11116 0.980732 -0.0352784 -0.192146 255 255 255
-7.57784 -1.38928 9.09273 0.948503 0.0121495 -0.316533 255 255 255
-7.5973 -1.4675 9.15056 0.963906 0.150432 -0.21967 255 255 255
-7.69907 0.420755 8.90807 0.550212 -0.7591 -0.3479 9 9 9
-7.7084 0.385259 8.94237 0.390273 -0.748142 -0.536628 106 106 106
-7.7084 0.385259 8.94237 0.390273 -0.748142 -0.536628 106 106 106
-7.75713 -0.0154562 9.09878 0.0644396 -0.498166 -0.864684 255 255 255
-7.73059 0.0131556 9.10473 -0.0964618 -0.223809 -0.969848 255 255 255
-7.75479 0.00399557 9.11492 0.0817336 0.020124 -0.996451 255 255 255
-7.75088 -0.0709785 9.12034 0.552672 0.143177 -0.821008 255 255 255
-7.72973 -0.131938 9.11655 0.591978 0.2696 -0.759525 211 211 211
-7.72947 -0.194598 9.11237 0.877693 -0.0171319 -0.478918 37 37 37
-7.72822 -0.251272 9.09774 0.755622 -0.0519458 -0.652944 3 3 3
-7.68424 -0.385315 9.11814 0.685381 0.263814 -0.678716 26 26 26
-7.66741 -0.44133 9.13033 0.739465 0.155191 -0.655062 200 200 200
-7.66992 -0.440407 9.11591 0.624364 0.180284 -0.760045 153 153 153
-7.65949 -0.498875 9.12274 0.723612 0.043638 -0.688826 243 243 243
-7.65729 -0.498713 9.13548 0.870795 0.119974 -0.476783 251 251 251
-7.64434 -0.554112 9.10956 0.595542 0.192056 -0.780028 249 249 249
-7.63226 -0.627779 9.11588 0.369201 -0.0482235 -0.928098 255 255 255
-7.66096 -0.678067 9.10519 0.258595 0.106123 -0.960139 227 227 227
-7.65016 -0.731317 9.10089 0.252315 0.162204 -0.953953 242 242 242
-7.60553 -0.776719 9.08814 0.114198 0.161175 -0.980297 255 255 255
-7.62152 -0.84374 9.12376 0.735364 0.0460124 -0.676109 255 255 255
-7.6071 -0.897497 9.1145 0.6606 0.0174486 -0.750535 255 255 255
-7.59371 -0.951001 9.10435 0.66847 -0.0368052 -0.742828 255 255 255
-7.61422 -1.01421 9.11915 0.742891 0.102072 -0.661585 255 255 255
-7.60708 -1.07142 9.11974 0.824842 0.112582 -0.554042 255 255 255
-7.55428 -1.10409 9.05858 -0.176927 0.105775 -0.978524 255 255 255
-7.53405 -1.17077 9.07047 0.280268 -0.21772 -0.934905 255 255 255
-7.58626 0.446891 8.82658 0.492325 -0.762882 -0.41908 2 2 2
-7.68825 0.0923132 9.02816 -0.14638 -0.0803761 -0.985958 255 255 255
-7.71423 -0.034765 9.13595 0.473136 -0.212941 -0.854867 254 254 254
-7.70669 -0.090081 9.14719 0.590837 0.125118 -0.79703 219 219 219
-7.70085 -0.163198 9.15497 0.892112 -0.0764388 -0.445302 3 3 3
-7.69608 -0.281815 9.15397 0.91567 0.253721 -0.311728 0 0 0
-7.67096 -0.344563 9.19173 0.70541 0.483533 -0.51826 166 166 166
-7.62281 -0.400912 9.15668 0.393029 0.164225 -0.904742 254 254 254
-7.6337 -0.463974 9.17102 0.782927 0.0787086 -0.617115 254 254 254
-7.65253 -0.408891 9.20074 0.981963 -0.00359838 -0.189039 254 254 254
-7.63759 -0.524619 9.18085 0.752329 0.0994639 -0.651236 255 255 255
-7.62007 -0.579109 9.17233 0.649719 0.1992 -0.73361 255 255 255
-7.62193 -0.680213 9.14084 0.585209 0.0638365 -0.808366 255 255 255
-7.60954 -0.796423 9.15096 0.750201 0.140021 -0.646214 255 255 255
-7.55809 -0.855237 9.0849 0.197626 -0.17416 -0.964682 255 255 255
-7.52308 -0.903152 9.07689 0.00546375 -0.383298 -0.923609 255 255 255
-7.50394 -0.964908 9.09137 -0.0489049 -0.269997 -0.961618 255 255 255
-7.47987 -1.20987 9.06377 0.0585012 -0.353286 -0.933684 255 255 255
-7.52955 0.504196 8.85196 0.806678 -0.52243 -0.276294 0 0 0
-7.64761 0.389217 9.08536 0.355439 -0.816293 -0.455333 147 147 147
-7.66813 0.376508 9.02171 0.577559 -0.727188 -0.370976 176 176 176
-7.66813 0.376508 9.02171 0.577559 -0.727188 -0.370976 176 176 176
-7.67237 -0.0543526 9.1693 0.680901 -0.095169 -0.726166 205 205 205
-7.67124 -0.0360096 9.17969 0.548401 -0.000139527 -0.836216 234 234 234
-7.66154 -0.10897 9.17129 0.536529 0.157344 -0.829083 14 14 14
-7.67362 -0.226339 9.23157 0.942744 0.165292 -0.289676 1 1 1
-7.66502 -0.297825 9.24033 0.742728 0.562321 -0.363524 120 120 120
-7.62321 -0.361501 9.25114 0.780573 0.439502 -0.44446 255 255 255
-7.56913 -0.421383 9.17976 0.246692 0.105195 -0.963367 255 255 255
-7.59726 -0.488283 9.20877 0.689336 0.102659 -0.717132 255 255 255
-7.59434 -0.546978 9.21279 0.754382 0.621677 -0.210775 255 255 255
-7.61297 0.459674 9.09909 0.223276 -0.672515 -0.7056 1 1 1
-7.63207 0.0959104 9.16583 0.843887 0.459967 -0.276197 255 255 255
-7.62825 0.0537376 9.22867 0.907578 -0.329619 -0.260101 255 255 255
-7.64275 -0.0109376 9.23762 0.884437 -0.156741 -0.43955 218 218 218
-7.62487 -0.0805348 9.24404 0.785271 0.236364 -0.57226 1 1 1
-7.66205 -0.181303 9.27508 0.894134 0.174412 -0.412437 0 0 0
-7.65191 -0.236299 9.31768 0.708203 0.456235 -0.538792 18 18 18
-7.61863 -0.291247 9.29733 0.383059 0.688067 -0.616304 241 241 241
-7.60632 0.500178 9.17194 0.271649 -0.583842 -0.765072 0 0 0
-7.59179 0.502549 9.13066 0.308412 -0.745734 -0.590562 0 0 0
-7.55098 0.456666 9.08057 0.160001 -0.836558 -0.523994 6 6 6
-7.62448 0.090008 9.31065 0.763052 0.548252 -0.342301 255 255 255
-7.61091 0.0171292 9.28312 0.802927 0.115559 -0.584769 238 238 238
-7.5955 -0.0407839 9.26355 0.773149 0.228335 -0.591696 16 16 16
-7.59422 -0.0565213 9.33485 0.82435 0.0632419 -0.562536 1 1 1
-7.64016 -0.191243 9.36094 0.654559 0.379584 -0.65381 0 0 0
-7.61184 -0.250247 9.35931 0.647823 0.247702 -0.720395 169 169 169
-7.55757 -0.332138 9.27844 0.389508 0.813208 -0.432407 255 255 255
-7.55483 -0.376353 9.35983 0.294992 0.851249 -0.434 255 255 255
-7.45984 0.505892 8.99859 0.337912 -0.735337 -0.587448 0 0 0
-7.54846 0.400634 9.13986 0.370942 -0.812359 -0.449971 220 220 220
-7.55779 0.350528 9.26498 0.489079 -0.760634 -0.426893 255 255 255
-7.58566 0.0870103 9.38045 0.418027 0.372456 -0.828571 255 255 255
-7.5701 0.0335772 9.36002 0.585155 0.089825 -0.805931 196 196 196
-7.57794 -0.102007 9.355 0.576859 -0.30851 -0.756343 0 0 0
-7.55774 -0.150018 9.38506 0.30637 -0.354238 -0.883546 0 0 0
-7.58765 -0.145448 9.42999 0.206469 0.33993 -0.917507 0 0 0
-7.5976 -0.199246 9.39911 0.249748 0.633765 -0.732098 10 10 10
-7.55109 -0.250231 9.37745 0.252685 0.41634 -0.873391 248 248 248
-7.46499 -0.338922 9.29581 0.290961 0.851188 -0.436831 255 255 255
-7.48281 0.450284 9.13759 0.390272 -0.751645 -0.531712 27 27 27
-7.48861 0.448584 9.14673 0.343057 -0.819311 -0.459391 33 33 33
-7.43986 0.487809 9.10209 0.54474 -0.745493 -0.384055 0 0 0
-7.53001 -0.0022974 9.36242 0.542925 -0.148295 -0.826584 4 4 4
-7.54952 -0.0574745 9.37598 0.486793 -0.231505 -0.842282 0 0 0
-7.51917 -0.102168 9.37019 0.0186607 -0.207265 -0.978107 0 0 0
-7.52813 -0.200028 9.39091 0.236086 -0.0552127 -0.970162 107 107 107
-7.50779 -0.249504 9.41187 0.229687 0.298983 -0.926203 255 255 255
-7.40442 0.49671 9.08438 0.472952 -0.764577 -0.437881 0 0 0
-7.40669 0.534641 9.11806 0.435287 -0.762696 -0.478352 0 0 0
-7.4029 0.451788 9.18928 0.337868 -0.820261 -0.461539 92 92 92
-7.3901 0.493484 9.16005 0.356278 -0.816772 -0.453816 0 0 0
-7.4029 0.451788 9.18928 0.337868 -0.820261 -0.461539 92 92 92
-7.42973 0.392557 9.21042 0.346932 -0.737171 -0.579842 255 255 255
-7.4113 0.435073 9.21718 0.301043 -0.82682 -0.475123 186 186 186
-7.39693 0.344168 9.16274 0.320871 -0.72485 -0.609617 255 255 255
-7.40538 0.345259 9.19111 0.275748 -0.829098 -0.486373 255 255 255
-7.41768 0.347442 9.19866 0.28681 -0.709193 -0.644038 255 255 255
-7.40538 0.345259 9.19111 0.275748 -0.829098 -0.486373 255 255 255
-7.37002 0.358072 9.16348 0.345288 -0.734894 -0.583702 255 255 255
-7.48067 0.147467 9.31499 0.332055 -0.702685 -0.629264 255 255 255
-7.47598 0.0973161 9.34979 0.259253 -0.68717 -0.678664 254 254 254
-7.47579 -0.0202397 9.42093 0.263396 -0.641286 -0.720677 0 0 0
-7.46342 -0.0513863 9.42465 0.801733 -0.471312 -0.367546 0 0 0
-7.44177 -0.134751 9.39427 0.534449 -0.72065 -0.44162 1 1 1
-7.43361 -0.199513 9.42441 0.390852 0.813013 -0.43156 235 235 235
-7.46437 -0.245708 9.45601 0.372061 0.143302 -0.91708 255 255 255
-7.29588 0.545734 9.07097 0.437873 -0.762778 -0.475855 0 0 0
-7.40529 0.138325 9.31884 0.329777 -0.663685 -0.671394 255 255 255
-7.42503 0.0952497 9.43724 0.55344 0.402722 -0.729054 232 232 232
-7.41769 0.0438091 9.41411 0.486161 0.391969 -0.78103 20 20 20
-7.41917 -0.033318 9.46288 0.700994 -0.231322 -0.67461 0 0 0
-7.41402 -0.243993 9.48886 0.545719 0.484676 -0.683579 255 255 255
-7.41402 -0.243993 9.48886 0.545719 0.484676 -0.683579 255 255 255
-7.41402 -0.243993 9.48886 0.545719 0.484676 -0.683579 255 255 255
-7.29563 0.548026 9.10402 0.423601 -0.797853 -0.428944 0 0 0
-7.30365 0.495147 9.21933 0.343223 -0.819207 -0.459454 21 21 21
-7.30365 0.495147 9.21933 0.343223 -0.819207 -0.459454 21 21 21
-7.33124 0.449116 9.29322 0.325846 -0.822395 -0.466358 198 198 198
-7.33434 0.445596 9.29773 0.431887 -0.7937 -0.428386 211 211 211
-7.36842 0.188271 9.36818 0.268791 -0.696307 -0.665513 255 255 255
-7.38675 0.0682886 9.47062 0.684646 -0.0525167 -0.726981 75 75 75
-7.38559 -0.0743916 9.43237 0.745989 -0.50081 -0.438963 1 1 1
-7.35135 -0.206734 9.47327 0.362843 0.843703 -0.395614 255 255 255
-7.1945 0.555638 9.05066 0.441539 -0.747765 -0.495875 0 0 0
-7.30771 0.229646 9.41929 0.511364 -0.757925 -0.40504 255 255 255
-7.28311 0.179577 9.35714 0.288564 -0.706244 -0.646491 255 255 255
-7.37075 0.00414262 9.53308 0.658241 -0.588996 -0.468831 0 0 0
-7.33284 -0.0436916 9.45006 0.577854 -0.718808 -0.386522 0 0 0
-7.35359 -0.10474 9.53031 0.751864 0.090357 -0.653097 3 3 3
-7.35009 -0.130569 9.51914 0.661608 -0.586844 -0.466786 81 81 81
-7.34946 -0.159261 9.5273 0.0116663 0.794088 -0.607691 228 228 228
-7.29636 -0.216366 9.50314 0.70855 0.539268 -0.455135 255 255 255
-7.34236 -0.174223 9.57339 0.643947 -0.149437 -0.750334 253 253 253
-7.17305 0.557453 9.14694 0.464318 -0.765423 -0.445574 0 0 0
-7.24949 0.490336 9.32498 0.382591 -0.752376 -0.536241 50 50 50
-7.25403 0.457446 9.35219 0.456606 -0.763273 -0.457083 215 215 215
-7.25671 0.447983 9.33062 0.396616 -0.754079 -0.523508 231 231 231
-7.36752 0.391989 9.48425 0.477981 -0.773612 -0.416003 255 255 255
-7.29517 0.123541 9.46108 0.358387 -0.734808 -0.575862 193 193 193
-7.31017 0.0633545 9.51234 0.702312 0.0295954 -0.711254 1 1 1
-7.25495 -0.0413471 9.49645 0.522372 -0.748258 -0.408946 0 0 0
-7.3065 -0.121695 9.56283 0.439314 -0.533352 -0.722868 123 123 123
-7.32315 -0.115114 9.56815 0.671369 -0.340821 -0.658107 65 65 65
-7.27194 -0.171565 9.56186 0.32151 0.43675 -0.840167 255 255 255
-7.2085 0.566277 9.3128 0.489399 0.101919 -0.866084 0 0 0
-7.20481 0.509651 9.35525 0.694979 -0.196361 -0.691698 34 34 34
-7.20989 0.423043 9.33023 0.813533 0.0658264 -0.57778 255 255 255
-7.26071 0.218287 9.48242 0.380769 -0.690026 -0.615532 255 255 255
-7.23956 0.231734 9.52245 0.586151 -0.149103 -0.796364 255 255 255
-7.24646 0.167291 9.5076 0.347064 -0.732929 -0.585117 249 249 249
-7.23395 0.175301 9.53401 0.4073 -0.74095 -0.533947 254 254 254
-7.28024 0.0936249 9.55854 0.557483 0.0589554 -0.828093 14 14 14
-7.24968 0.0474469 9.54533 0.610298 -0.445908 -0.654754 0 0 0
-7.24104 0.0020273 9.56136 0.53137 -0.7022 -0.473879 0 0 0
-7.27124 -0.101952 9.60003 0.322746 -0.715573 -0.619508 85 85 85
-7.20045 -0.206475 9.54422 0.510201 0.780717 -0.360798 255 255 255
-7.18681 0.604355 9.35892 0.971234 0.137032 -0.194746 0 0 0
-7.18304 0.547764 9.40129 0.628267 0.208674 -0.74949 0 0 0
-7.16259 0.495187 9.40763 0.700313 -0.24676 -0.669829 160 160 160
-7.20497 0.0544068 9.60966 0.651296 -0.432798 -0.623297 0 0 0
-7.20676 -0.0447402 9.59603 0.536892 -0.740873 -0.403552 1 1 1
-7.18297 -0.152825 9.56518 0.143607 0.819377 -0.554977 255 255 255
-7.14551 0.53583 9.46163 0.530963 0.229593 -0.815699 8 8 8
-7.17136 0.246181 9.5529 0.443123 -0.756975 -0.480241 255 255 255
-7.20089 0.160171 9.61115 0.560805 0.3956 -0.727322 153 153 153
-7.17004 0.111595 9.62033 0.535987 0.379206 -0.754268 0 0 0
-7.17601 0.00878739 9.63171 0.752491 -0.388994 -0.531453 0 0 0
-7.17974 -0.0579304 9.67596 0.498061 0.705492 -0.504199 69 69 69
-7.09007 -0.137095 9.58445 0.123796 0.832126 -0.540593 255 255 255
-7.05221 0.588929 9.37793 0.474997 -0.766928 -0.431509 0 0 0
-7.05153 0.53666 9.44819 0.372344 -0.75156 -0.544534 65 65 65
-7.10243 0.301999 9.53749 0.47862 -0.701797 -0.52764 255 255 255
-7.09559 0.250029 9.58684 0.382143 -0.735195 -0.559871 255 255 255
-7.15681 0.157507 9.65714 0.244973 -0.686765 -0.684355 39 39 39
-7.15234 0.0695998 9.64415 0.490654 -0.754623 -0.435663 0 0 0
-7.10673 -0.0442392 9.70019 0.35095 -0.629956 -0.692813 151 151 151
-7.10359 -0.0932349 9.64781 0.383525 0.675967 -0.629267 254 254 254
-7.05516 -0.167472 9.62353 0.150045 0.835519 -0.528578 255 255 255
-6.99184 0.630293 9.41384 0.489552 -0.09123 -0.867189 0 0 0
-7.09693 0.19591 9.65951 0.350719 -0.736657 -0.578214 134 134 134
-7.12031 0.136575 9.6975 0.519109 0.32212 -0.791685 0 0 0
-7.0953 0.0876378 9.70678 0.424503 0.303359 -0.853094 0 0 0
-7.04009 -0.0794708 9.65287 0.362923 0.608798 -0.705444 254 254 254
-7.06768 -0.135525 9.69377 0.50881 0.804144 -0.307351 255 255 255
-6.99439 0.606287 9.51297 0.62551 -0.142688 -0.767058 0 0 0
-7.01542 0.54992 9.51392 0.635745 -0.233828 -0.735631 47 47 47
-7.03368 0.491472 9.58571 0.530951 -0.74972 -0.394983 254 254 254
-7.05375 0.194249 9.70571 0.25978 0.764142 -0.590425 24 24 24
-7.03175 0.14868 9.7275 0.222359 0.613027 -0.758125 1 1 1
-7.0618 0.0889181 9.76431 0.569056 -0.0512617 -0.820699 0 0 0
-7.01167 0.0475892 9.71371 0.544184 -0.594202 -0.592273 0 0 0
-6.98777 -0.073814 9.68493 0.513732 0.549837 -0.658604 255 255 255
-6.97878 0.56328 9.5784 0.593048 -0.290691 -0.750861 38 38 38
-7.02011 0.195447 9.76527 0.477295 0.426806 -0.768132 3 3 3
-6.96916 0.147842 9.73885 0.364126 0.197128 -0.910249 0 0 0
-6.96243 0.0737875 9.73494 0.546961 -0.734323 -0.402 0 0 0
-6.93665 -0.0636718 9.71316 0.493081 0.517801 -0.699109 255 255 255
-6.88756 0.632532 9.51936 0.532707 -0.590412 -0.606331 0 0 0
-6.90362 0.57942 9.58839 0.567718 -0.668512 -0.480404 27 27 27
-6.96631 0.503813 9.65365 0.515048 -0.763305 -0.389989 255 255 255
-6.98256 0.332267 9.7716 0.514888 0.0648616 -0.8548 255 255 255
-6.9743 0.24732 9.81349 0.599656 0.00501087 -0.800242 70 70 70
-6.93145 0.148916 9.7858 0.30074 0.00830772 -0.95367 0 0 0
-6.92381 -0.0252595 9.78124 0.586649 0.239863 -0.773504 255 255 255
-6.89684 -0.0771937 9.76503 0.65562 0.383353 -0.650541 255 255 255
-6.73378 -0.440368 9.61886 0.957388 -0.0716404 -0.279777 255 255 255
-6.85337 0.632659 9.60316 0.649291 -0.421305 -0.633185 0 0 0
-6.89742 0.469247 9.65408 0.585989 -0.748109 -0.311368 255 255 255
-6.85829 0.412458 9.69633 0.127996 -0.617244 -0.776291 255 255 255
-6.96301 0.324538 9.82288 0.410078 -0.0768592 -0.908806 255 255 255
-6.92049 0.274874 9.81813 0.08598 -0.0780494 -0.993235 141 141 141
-6.94608 0.199354 9.82067 0.439232 0.261912 -0.859347 1 1 1
-6.89473 0.120096 9.83874 0.471513 0.309138 -0.825899 1 1 1
-6.90197 0.0243459 9.82012 0.229166 0.384417 -0.894263 205 205 205
-6.87189 -0.0789742 9.79534 0.626339 0.119372 -0.770357 255 255 255
-6.80716 -0.0963447 9.7523 0.967246 0.149445 -0.205188 250 250 250
-6.88966 -0.171186 9.87115 -0.210564 -0.00999676 -0.977529 255 255 255
-6.86066 -0.250555 9.86707 -0.233258 0.102712 -0.966975 255 255 255
-6.85437 -0.223308 9.86816 -0.224246 0.0492772 -0.973286 255 255 255
-6.77196 -0.301276 9.73839 0.945403 0.254243 -0.203895 255 255 255
-6.80619 -0.353751 9.76319 0.958882 0.19841 -0.202925 255 255 255
-6.80619 -0.353751 9.76319 0.958882 0.19841 -0.202925 255 255 255
-6.74921 -0.393553 9.74565 0.961966 0.181163 -0.204454 254 254 254
-6.71816 -0.534844 9.67484 0.952268 0.227547 -0.203488 255 255 255
-6.82994 0.668041 9.65055 0.581194 -0.74628 -0.32447 0 0 0
-6.83807 0.581844 9.64874 0.54572 -0.71035 -0.444514 75 75 75
-6.82182 0.460244 9.68357 0.267888 -0.491311 -0.828764 255 255 255
-6.88494 0.376674 9.78981 -0.415729 -0.372371 -0.829765 255 255 255
-6.84138 0.28491 9.76119 0.0858528 -0.575947 -0.812966 93 93 93
-6.8322 0.212928 9.82108 -0.151209 -0.208307 -0.966304 0 0 0
-6.86267 0.0626851 9.82519 0.533093 0.13321 -0.835504 99 99 99
-6.84934 0.00857479 9.82574 0.551643 0.112473 -0.826462 254 254 254
-6.83622 -0.045516 9.81952 0.635796 0.0853818 -0.76712 232 232 232
-6.80997 -0.166081 9.85844 0.0697578 0.0182201 -0.997398 199 199 199
-6.82192 -0.301733 9.85768 -0.216639 0.0118086 -0.97618 248 248 248
-6.73813 -0.33572 9.78646 0.939395 0.274928 -0.204821 229 229 229
-6.85136 0.689562 9.7978 0.881589 -0.392535 -0.26214 0 0 0
-6.80628 0.629522 9.68918 0.606795 -0.134704 -0.783362 0 0 0
-6.77252 0.583097 9.71741 0.526475 -0.762734 -0.37558 137 137 137
-6.79028 0.460224 9.684 0.0606884 -0.770991 -0.633947 255 255 255
-6.80961 0.413346 9.73488 -0.0548623 -0.780245 -0.623063 254 254 254
-6.7922 0.375003 9.74614 -0.0946274 -0.334045 -0.937795 224 224 224
-6.78513 0.316208 9.76285 0.0498 -0.541327 -0.839336 73 73 73
-6.83583 0.116737 9.88919 0.0135668 0.496278 -0.868058 0 0 0
-6.81607 0.0455852 9.84945 0.3654 0.127946 -0.922016 119 119 119
-6.78627 0.0156746 9.86707 0.604685 0.096303 -0.790621 14 14 14
-6.7939 -0.0681352 9.84631 0.415593 0.0299179 -0.909059 112 112 112
-6.74363 -0.162347 9.86686 0.359572 0.187724 -0.914039 5 5 5
-6.756 -0.244088 9.85114 0.656734 0.348693 -0.668666 107 107 107
-6.73314 -0.29492 9.85948 0.867305 0.320018 -0.381276 82 82 82
-6.72735 -0.400874 9.84433 0.402731 0.0863277 -0.911238 162 162 162
-6.71805 -0.463982 9.85565 0.0744322 0.19497 -0.977981 162 162 162
-6.76101 0.649381 9.71938 0.334832 0.406955 -0.849868 0 0 0
-6.74308 0.495097 9.75723 0.255394 0.32081 -0.912061 254 254 254
-6.71585 0.44392 9.77011 0.695121 0.0797234 -0.714458 88 88 88
-6.69454 0.415264 9.74642 -0.137765 -0.251301 -0.958055 8 8 8
-6.7188 0.348799 9.73207 -0.219196 0.0160754 -0.975548 2 2 2
-6.72097 0.288268 9.77768 -0.0720627 -0.634267 -0.769748 0 0 0
-6.75947 0.201767 9.88512 0.670201 0.443371 -0.595192 0 0 0
-6.7831 0.109229 9.90728 0.616015 0.332881 -0.713944 0 0 0
-6.75929 0.0544432 9.89781 0.659642 0.209075 -0.721914 1 1 1
-6.74285 -0.000920145 9.90107 0.586065 0.138173 -0.798396 0 0 0
-6.72923 -0.0557895 9.89902 0.555969 0.125666 -0.821649 1 1 1
-6.71626 -0.11019 9.897 0.509923 0.172339 -0.84278 1 1 1
-6.69835 -0.163333 9.89714 0.479151 0.141168 -0.866306 23 23 23
-6.70927 -0.208237 9.8681 0.285042 0.15787 -0.945425 1 1 1
-6.70055 -0.243779 9.86751 0.301826 0.134198 -0.943871 0 0 0
-6.68976 -0.300935 9.86412 0.772229 0.124179 -0.62309 1 1 1
-6.68047 -0.359473 9.86423 0.753556 0.150365 -0.639956 2 2 2
-6.6729 -0.418489 9.86797 0.561238 0.206175 -0.801563 21 21 21
-6.75103 0.653447 9.82249 0.0690066 0.809939 -0.58244 0 0 0
-6.71991 0.539306 9.78383 0.641856 0.315585 -0.698876 255 255 255
-6.73771 0.164837 9.91921 0.802663 0.0972348 -0.588453 20 20 20
-6.70169 0.135632 9.9419 0.805116 -0.0166126 -0.592885 88 88 88
-6.75725 0.150017 9.9342 0.653471 0.380996 -0.654078 20 20 20
-6.73285 0.0953664 9.92283 0.68092 0.255481 -0.686351 73 73 73
-6.70864 0.0361522 9.92216 0.847774 0.159901 -0.505679 156 156 156
-6.71232 0.0386434 9.92055 0.787115 0.171663 -0.592437 143 143 143
-6.697 -0.0191569 9.92634 0.869918 0.22459 -0.439092 155 155 155
-6.68208 -0.0737825 9.91975 0.836106 0.314938 -0.449157 159 159 159
-6.65967 -0.138268 9.92524 0.780663 0.314673 -0.53995 176 176 176
-6.66551 -0.122931 9.91363 0.852778 0.282072 -0.439551 149 149 149
-6.65028 -0.163537 9.92481 0.0402593 0.0522753 -0.997821 189 189 189
-6.66413 -0.209271 9.8985 0.735327 0.0875037 -0.672039 68 68 68
-6.65513 -0.266016 9.89644 0.739455 0.102484 -0.66536 38 38 38
-6.71745 0.625125 9.86918 -0.122236 0.712989 -0.690439 78 78 78
-6.68388 0.57259 9.83165 0.381854 0.440899 -0.812278 253 253 253
-6.64465 0.523739 9.82226 0.53793 0.381154 -0.751899 40 40 40
-6.67949 0.472533 9.85147 0.893831 -0.362652 -0.263721 3 3 3
-6.64547 0.426981 9.82874 0.788439 0.115107 -0.604247 0 0 0
-6.60904 0.360376 9.78317 0.700021 0.492315 -0.517298 0 0 0
-6.71043 0.198529 9.9601 0.797077 0.0734917 -0.599389 0 0 0
-6.6564 0.11588 9.98433 0.575538 0.109064 -0.810469 232 232 232
-6.68797 0.0810965 9.95692 0.564661 0.194749 -0.802016 248 248 248
-6.68638 0.0213002 9.97995 0.966122 0.148751 -0.210905 254 254 254
-6.66841 -0.0321745 9.97015 0.953818 0.214601 -0.210183 255 255 255
-6.63514 -0.0531554 9.96766 0.740656 0.235801 -0.629148 255 255 255
-6.6301 -0.0513901 9.95082 0.537007 0.256954 -0.803491 255 255 255
-6.63804 -0.0957567 9.95392 0.577912 0.361288 -0.731771 255 255 255
-6.63941 -0.0950759 9.95459 0.587417 0.360826 -0.724393 255 255 255
-6.64442 -0.200227 9.95342 0.97038 0.115466 -0.212202 233 233 233
-6.59611 -0.165917 9.9353 0.261479 0.0628078 -0.963164 255 255 255
-6.59721 -0.284099 9.91416 -0.0866347 -0.0509251 -0.994938 227 227 227
-6.55548 -0.340107 9.90669 -0.234561 0.0638032 -0.970005 237 237 237
-6.6821 0.677784 9.88703 -0.0283793 0.769513 -0.638 0 0 0
-6.64012 0.584835 9.84593 0.563059 0.307142 -0.767221 237 237 237
-6.60806 0.519495 9.89891 0.636019 -0.255697 -0.728079 0 0 0
-6.61695 0.472927 9.84571 0.680412 0.445719 -0.581698 0 0 0
-6.62494 0.23985 9.90225 0.222949 -0.685595 -0.693003 0 0 0
-6.6268 0.18457 9.97188 0.300648 -0.722463 -0.622622 49 49 49
-6.62373 0.13094 10.0256 0.494672 -0.660891 -0.564379 237 237 237
-6.60932 0.0939926 9.99025 0.198281 -0.317172 -0.927408 255 255 255
-6.65621 0.0558143 10.0119 0.758024 0.115107 -0.641989 255 255 255
-6.65731 -0.00464987 10.0436 0.962912 0.167158 -0.211798 255 255 255
-6.52173 -0.10308 9.90039 -0.227468 0.0168638 -0.97364 255 255 255
-6.54864 -0.168117 9.95765 -0.180087 0.00818418 -0.983617 255 255 255
-6.51961 -0.230666 9.96183 -0.00863501 0.0362068 -0.999307 255 255 255
-6.54005 -0.286873 9.94034 -0.190417 -0.115566 -0.974877 255 255 255
-6.45046 -0.331116 9.85964 -0.237931 0.065023 -0.969103 255 255 255
-6.43319 -0.403314 9.86449 -0.218027 -0.0240192 -0.975647 255 255 255
-6.52272 1.12274 9.6508 0.0681663 -0.596068 -0.800035 221 221 221
-6.60734 0.713427 9.94751 0.665544 0.565272 -0.487359 0 0 0
-6.63238 0.650464 9.91129 -0.0418288 0.763147 -0.64487 17 17 17
-6.57814 0.623096 9.92826 0.466772 0.608111 -0.642125 154 154 154
-6.56539 0.184338 10.0318 0.361947 -0.742845 -0.563183 116 116 116
-6.56355 0.227317 9.9743 0.327616 -0.733907 -0.59502 18 18 18
-6.57059 0.131178 10.0443 0.172119 -0.285627 -0.942758 254 254 254
-6.57105 0.0883844 10.0228 0.128727 -0.24221 -0.961646 255 255 255
-6.45506 -0.277241 9.89582 -0.228364 0.119042 -0.966271 255 255 255
-6.38779 -0.334694 9.85283 -0.22303 -0.00972219 -0.974763 255 255 255
-6.36494 -0.404101 9.85847 -0.236393 0.0528424 -0.97022 255 255 255
-6.48538 1.09073 9.70002 0.145403 -0.664428 -0.733072 154 154 154
-6.56684 0.656959 9.96115 0.284474 0.665756 -0.689815 56 56 56
-6.55837 0.533357 9.93149 0.75342 -0.0139807 -0.657391 2 2 2
-6.54493 0.17991 10.0569 0.459176 -0.70515 -0.540297 165 165 165
-6.53647 0.127905 10.0997 0.479889 -0.755006 -0.446847 255 255 255
-6.52405 0.0422423 10.0217 0.274004 -0.0336392 -0.96114 255 255 255
-6.52012 0.028355 10.0861 -0.0624811 0.101709 -0.99285 255 255 255
-6.42812 1.36548 9.61914 0.0703367 0.364777 -0.928434 114 114 114
-6.42595 1.17765 9.63215 0.161062 -0.308904 -0.937357 37 37 37
-6.41958 1.12496 9.67991 0.18441 -0.693413 -0.696542 204 204 204
-6.43276 1.06717 9.74224 0.243444 -0.725973 -0.643194 11 11 11
-6.54327 0.758258 10.0045 0.588607 0.697558 -0.408601 0 0 0
-6.50756 0.755739 9.99271 0.869811 0.0112123 -0.493257 0 0 0
-6.48987 0.761089 9.91863 0.494206 -0.767626 -0.408058 0 0 0
-6.47581 0.707994 9.94776 0.619753 -0.567899 -0.541661 2 2 2
-6.47603 0.595683 9.98432 0.79109 0.347418 -0.503465 1 1 1
-6.51899 0.312067 10.1323 0.811514 0.532082 -0.241522 0 0 0
-6.51996 0.26807 10.0443 0.414264 0.18325 -0.891518 1 1 1
-6.51821 0.204949 10.0903 0.746612 0.0869739 -0.65955 110 110 110
-6.36481 1.38043 9.64374 0.634686 -0.0125569 -0.772668 204 204 204
-6.38301 1.43201 9.66202 0.407391 0.557203 -0.723573 255 255 255
-6.36674 1.32955 9.60644 0.37366 0.568114 -0.73323 11 11 11
-6.35256 1.20957 9.68646 0.619168 -0.15563 -0.769682 0 0 0
-6.37447 1.15639 9.68041 0.630357 -0.327084 -0.704036 61 61 61
-6.39015 1.04775 9.80756 0.391067 -0.773515 -0.49874 0 0 0
-6.4529 0.70312 10.0192 0.314809 -0.746152 -0.586644 11 11 11
-6.46434 0.655287 9.98173 0.618036 0.456421 -0.640088 112 112 112
-6.4317 0.293535 10.0804 0.22645 -0.831929 -0.506571 1 1 1
-6.48327 0.238838 10.1112 0.800452 0.225815 -0.555233 47 47 47
-6.48071 0.180097 10.1262 0.700145 0.0720212 -0.710359 241 241 241
-6.45677 0.138788 10.1631 0.564532 -0.598494 -0.568427 255 255 255
-6.32757 1.3274 9.64744 0.484286 0.390972 -0.782693 1 1 1
-6.31085 1.27077 9.66005 0.0456447 0.0465524 -0.997873 0 0 0
-6.30471 1.15456 9.7046 0.379698 -0.757114 -0.531609 55 55 55
-6.44894 0.760656 10.0291 0.070358 0.810339 -0.581722 0 0 0
-6.42682 0.23968 10.1293 0.320523 -0.8176 -0.478325 113 113 113
-6.30918 1.43047 9.68004 0.305653 0.00315146 -0.952138 255 255 255
-6.23505 1.32525 9.67069 0.303931 0.532628 -0.789895 1 1 1
-6.28231 1.32402 9.66623 0.225155 0.4044 -0.886435 2 2 2
-6.264 1.26765 9.6774 -0.104401 -0.120662 -0.987188 0 0 0
-6.23502 1.25968 9.70727 -0.183934 -0.192588 -0.963887 0 0 0
-6.29016 1.21012 9.782 0.671689 -0.657655 -0.341063 0 0 0
-6.30488 1.10241 9.77568 0.328143 -0.761237 -0.559321 49 49 49
-6.33182 1.04534 9.88105 0.382389 -0.77242 -0.507095 0 0 0
-6.37718 0.334708 10.1139 -0.0887973 -0.379876 -0.920766 0 0 0
-6.3673 0.281781 10.1463 0.300339 -0.728403 -0.615813 27 27 27
-6.34334 0.155547 10.1633 0.0575023 -0.0559094 -0.996779 255 255 255
-6.26048 1.42911 9.70337 0.282344 0.195391 -0.939204 255 255 255
-6.2145 1.42723 9.73095 0.611911 0.261742 -0.746362 255 255 255
-6.21088 1.42793 9.72588 0.63103 0.145344 -0.762021 255 255 255
-6.23288 1.37917 9.70467 0.304385 0.245126 -0.920469 178 178 178
-6.18881 1.32435 9.67636 0.210975 0.761685 -0.612638 0 0 0
-6.25404 1.14412 9.77537 0.532216 -0.752045 -0.388812 115 115 115
-6.24591 1.09855 9.83958 0.472055 -0.769715 -0.429771 8 8 8
-6.31298 0.340902 10.135 0.325257 -0.35243 -0.877497 0 0 0
-6.2888 0.275569 10.1615 0.342781 -0.715081 -0.609229 123 123 123
-6.30975 0.17568 10.2213 0.720267 -0.154523 -0.676267 255 255 255
-6.33225 0.223825 10.2059 0.375847 -0.748437 -0.546426 248 248 248
-6.17586 1.43502 9.7224 0.648096 -0.267958 -0.71286 255 255 255
-6.18758 1.37711 9.73295 0.664944 -0.00908333 -0.746838 145 145 145
-6.20159 1.32169 9.7931 0.448394 -0.757818 -0.473977 0 0 0
-6.27043 0.339623 10.1815 0.461868 0.0353038 -0.886246 0 0 0
-6.27034 0.226642 10.1902 0.497859 -0.12645 -0.85799 254 254 254
-6.26274 0.1753 10.2554 0.704531 -0.220526 -0.674541 255 255 255
-6.11975 1.41073 9.73472 0.581136 -0.643397 -0.498318 240 240 240
-6.26371 0.543517 10.2903 0.0934781 -0.617123 -0.781295 5 5 5
-6.26263 0.384214 10.2489 0.340983 -0.234309 -0.910401 0 0 0
-6.17907 0.268901 10.2234 -0.155095 -0.255509 -0.954286 253 253 253
-6.07482 1.46191 9.74924 0.580206 -0.686083 -0.438921 255 255 255
-6.12631 1.38347 9.86023 0.216167 0.834635 -0.506613 119 119 119
-6.11912 1.32676 9.83681 0.630227 -0.0739299 -0.772883 0 0 0
-6.10514 1.29691 9.90125 0.636894 -0.0422427 -0.769793 0 0 0
-6.1813 0.580312 10.2283 0.380298 -0.760032 -0.526996 0 0 0
-6.18843 0.578621 10.2366 0.223449 -0.706612 -0.671394 0 0 0
-6.18632 0.524481 10.2793 0.400951 -0.617662 -0.676559 31 31 31
-6.22529 0.487036 10.2507 0.140673 -0.709837 -0.690175 12 12 12
-6.17585 0.42471 10.2751 0.828895 0.47932 -0.288419 3 3 3
-6.15726 0.313356 10.2524 0.534393 0.287217 -0.79494 218 218 218
-6.03491 1.41822 9.76462 0.46569 -0.785878 -0.406852 223 223 223
-6.1021 1.35254 9.90715 0.689048 0.115548 -0.715445 0 0 0
-6.0996 1.29692 9.91908 0.625612 0.0601855 -0.777809 0 0 0
-6.1066 0.572893 10.1717 0.39249 -0.762003 -0.515076 1 1 1
-6.18994 0.525032 10.2914 0.234416 -0.602943 -0.762568 33 33 33
-6.17143 0.474073 10.329 0.144496 -0.228663 -0.962722 123 123 123
-6.14116 0.425395 10.3407 0.683161 0.512668 -0.52006 193 193 193
-6.1409 0.42025 10.3287 0.891136 0.386638 -0.23746 162 162 162
-6.11477 0.293376 10.2828 0.673864 0.149481 -0.723576 254 254 254
-6.07482 0.234255 10.1969 0.280846 0.846659 -0.451988 255 255 255
-6.1377 0.524312 10.3184 0.349416 -0.393781 -0.850203 142 142 142
-6.05941 0.524808 10.2813 0.311367 -0.742429 -0.59317 228 228 228
-6.11252 0.474116 10.3372 0.182532 -0.169966 -0.968397 253 253 253
-6.10177 0.341912 10.3126 0.895329 0.367525 -0.251618 240 240 240
-6.10539 0.36788 10.3571 0.726345 0.487128 -0.484901 253 253 253
-6.04814 0.268493 10.2387 0.791596 0.112828 -0.600538 255 255 255
-6.01197 1.42927 10.0286 0.213702 0.834154 -0.508448 205 205 205
-5.95124 1.34417 9.94788 0.271306 0.83767 -0.474028 0 0 0
-6.08692 0.616439 10.3813 0.342814 0.7006 -0.62581 0 0 0
-6.06114 0.462777 10.3887 0.493623 0.265862 -0.828042 255 255 255
-6.09132 0.416304 10.387 0.663254 0.41461 -0.623052 255 255 255
-6.03642 0.356541 10.3553 0.751442 0.416828 -0.511458 255 255 255
-6.05685 0.312362 10.3426 0.797129 0.546941 -0.255814 255 255 255
-6.02102 0.241324 10.3085 0.900815 0.363993 -0.236732 255 255 255
-5.99966 1.47748 10.0848 0.16904 0.827958 -0.534706 255 255 255
-5.92078 1.38879 9.97698 0.243591 0.836485 -0.490873 5 5 5
-5.97435 0.612184 10.3021 0.0992408 -0.360195 -0.927583 0 0 0
-5.9841 0.505486 10.3118 0.0612877 0.270102 -0.960879 255 255 255
-5.98116 0.460259 10.3641 -0.101384 0.00212163 -0.994845 255 255 255
-5.94051 1.44338 10.0869 0.156865 0.82628 -0.540976 181 181 181
-5.9407 1.44305 10.088 0.161074 0.827073 -0.538522 180 180 180
-5.88562 1.35072 10.0278 0.190464 0.83231 -0.52056 0 0 0
-5.88293 1.35213 10.0184 0.189004 0.831782 -0.521935 0 0 0
-5.95113 0.559133 10.3258 0.0242272 -0.166784 -0.985696 127 127 127
-5.91923 0.612854 10.3171 0.00947899 -0.250584 -0.968048 0 0 0
-5.91679 0.612645 10.3181 0.0192866 -0.229223 -0.973183 0 0 0
-5.93654 0.506878 10.3451 0.0701365 -0.286501 -0.955509 255 255 255
-5.90556 0.559124 10.3344 0.0570328 -0.146692 -0.987537 182 182 182
-5.9489 0.458213 10.437 0.0145744 -0.548009 -0.836346 255 255 255
-5.9197 1.49094 10.1281 0.156052 0.825697 -0.5421 254 254 254
-5.85318 1.39684 10.0486 0.166618 0.828444 -0.534714 0 0 0
-5.91579 0.672063 10.3586 0.454982 0.815828 -0.356954 0 0 0
-5.86457 0.664796 10.2646 0.0988517 -0.379501 -0.919895 0 0 0
-5.89335 0.616164 10.3847 0.348944 0.774891 -0.52705 0 0 0
-5.89013 0.615832 10.3838 0.362264 0.771024 -0.523724 0 0 0
-5.84047 0.558828 10.3319 0.184217 0.838758 -0.512395 232 232 232
-5.88491 0.507791 10.3689 0.2338 -0.422278 -0.875796 255 255 255
-5.87048 1.45905 10.1459 0.182072 0.830286 -0.526759 168 168 168
-5.8705 1.45875 10.1472 0.183301 0.830568 -0.525887 166 166 166
-5.80166 1.36383 10.0636 0.152586 0.826415 -0.541993 0 0 0
-5.78798 1.36294 10.0377 0.191728 0.832182 -0.520301 0 0 0
-5.87689 0.661897 10.4303 0.226072 0.842127 -0.489605 0 0 0
-5.85155 0.556271 10.3589 0.640909 0.352805 -0.681736 240 240 240
-5.82321 0.507603 10.3808 0.795689 0.286137 -0.533858 255 255 255
-5.83987 1.50554 10.1705 0.173021 0.828604 -0.532428 253 253 253
-5.79321 1.47256 10.195 0.181695 0.83029 -0.526882 139 139 139
-5.79438 1.4717 10.1997 0.180669 0.830174 -0.527419 135 135 135
-5.77211 1.41024 10.0892 0.198082 0.832867 -0.516813 0 0 0
-5.74444 1.3778 10.1474 0.16965 0.829369 -0.532322 0 0 0
-5.74421 1.37777 10.147 0.169709 0.829309 -0.532397 0 0 0
-5.74421 1.37777 10.147 0.169709 0.829309 -0.532397 0 0 0
-5.82547 0.668961 10.4883 0.262421 0.843346 -0.468939 0 0 0
-5.81644 0.607327 10.4007 0.894 0.0282796 -0.447174 48 48 48
-5.83549 0.625608 10.4652 0.281372 0.842081 -0.460141 3 3 3
-5.79486 0.54734 10.4089 0.775136 0.337802 -0.533904 253 253 253
-5.75795 1.5185 10.2113 0.130154 0.820645 -0.556418 246 246 246
-5.70505 1.42252 10.1578 0.228699 0.835542 -0.499566 0 0 0
-5.77744 0.58948 10.4525 0.770416 0.2882 -0.568683 181 181 181
-5.71703 0.526231 10.3928 0.23138 0.843327 -0.485039 255 255 255
-5.71632 1.4887 10.2428 0.180331 0.83007 -0.527698 111 111 111
-5.71612 1.48874 10.2422 0.180135 0.830051 -0.527794 111 111 111
-5.71612 1.48874 10.2422 0.180135 0.830051 -0.527794 111 111 111
-5.71612 1.48874 10.2422 0.180135 0.830051 -0.527794 111 111 111
-5.77094 0.675482 10.5858 0.191137 0.788867 -0.584086 0 0 0
-5.69581 0.56715 10.4258 0.121426 0.828096 -0.547277 251 251 251
-5.64205 0.536576 10.4344 0.130231 0.830449 -0.541659 255 255 255
-5.65971 1.53315 10.219 0.134257 0.82156 -0.554089 193 193 193
-5.64849 1.4333 10.2485 0.229469 0.835594 -0.499126 1 1 1
-5.61609 0.70838 10.4686 0.728663 -0.572564 -0.375794 0 0 0
-5.66633 0.700197 10.6348 0.767134 -0.547929 -0.333585 0 0 0
-5.58202 1.26753 10.4484 0.210015 -0.73115 -0.649086 7 7 7
-5.60938 0.768441 10.6009 0.724106 -0.595598 -0.347756 0 0 0
-5.6182 0.689279 10.6894 0.316204 -0.0711257 -0.946021 0 0 0
-5.64222 0.640496 10.6773 0.495557 -0.607281 -0.620993 86 86 86
-5.68573 0.586345 10.7631 0.345357 -0.81441 -0.46633 248 248 248
-5.65143 0.537883 10.7102 0.537072 -0.482724 -0.69176 255 255 255
-5.56679 1.21657 10.4811 0.235575 -0.648366 -0.723966 0 0 0
-5.58797 1.15278 10.5802 -0.160604 -0.346159 -0.924327 0 0 0
-5.61139 0.9007 10.722 0.090923 -0.368595 -0.925133 8 8 8
-5.63827 0.877703 10.7566 -0.259979 -0.0830558 -0.962036 20 20 20
-5.5917 0.83173 10.7153 0.546357 0.0748337 -0.834202 7 7 7
-5.58876 0.836515 10.6951 0.926095 -0.0363991 -0.375531 4 4 4
-5.58812 0.77419 10.7169 0.550301 0.135306 -0.823931 9 9 9
-5.60566 0.74098 10.674 0.690698 0.0271057 -0.722635 0 0 0
-5.57326 0.721757 10.7012 0.822237 0.0919446 -0.561669 19 19 19
-5.5778 0.682447 10.7298 -0.0171897 -0.644674 -0.764264 60 60 60
-5.67148 0.570329 10.8285 0.308316 -0.810583 -0.497891 255 255 255
-5.5097 1.22292 10.5041 0.500037 -0.283953 -0.818128 58 58 58
-5.54506 1.09689 10.6025 -0.0899015 -0.46309 -0.88174 66 66 66
-5.55087 1.03452 10.6507 -0.00407812 -0.567344 -0.823471 10 10 10
-5.58 0.963975 10.7186 -0.0597653 -0.501613 -0.863025 26 26 26
-5.55865 0.898206 10.7394 -0.255905 -0.105041 -0.960978 73 73 73
-5.54892 0.807528 10.7449 0.700115 0.0629173 -0.711253 207 207 207
