ply
format ascii 1.0
element vertex 742
property float x
property float y
property float z
property float nx
property float ny
property float nz
property uchar diffuse_red
property uchar diffuse_green
property uchar diffuse_blue
end_header
-5.87321 -6.72064 34.0871 -0.602076 -0.123535 -0.788824 0 0 0
-5.44779 -6.99687 35.0941 -0.688717 0.159015 -0.707377 250 250 250
-5.31244 -7.00084 34.8352 -0.685079 0.0983435 -0.7218 255 255 255
-10.6321 -7.1081 36.8394 0.0790606 -0.414445 -0.906634 225 225 225
-9.58995 -7.27719 36.6527 -0.518017 0.587032 -0.622135 92 92 92
-9.4078 -7.10409 36.7274 -0.19073 0.339456 -0.921082 33 33 33
-9.16834 -7.09231 36.6385 -0.0847942 0.0525681 -0.995011 187 187 187
-8.94267 -7.09179 36.5547 -0.337637 0.0607059 -0.939317 52 52 52
-8.2202 -7.02438 35.9749 0.0777998 0.483416 -0.871927 0 0 0
-7.92321 -6.97475 35.8796 -0.649976 0.145679 -0.745861 81 81 81
-7.47931 -7.01869 35.7228 -0.654363 0.115782 -0.747264 255 255 255
-7.47931 -7.01869 35.7228 -0.654363 0.115782 -0.747264 255 255 255
-6.07564 -6.52958 33.9346 -0.668496 0.117623 -0.734356 44 44 44
-10.5576 -6.9776 36.9142 -0.107892 -0.396264 -0.911775 254 254 254
-10.314 -7.01101 36.9102 -0.194476 -0.246571 -0.949411 205 205 205
-9.98345 -7.06763 36.9228 -0.375153 0.443054 -0.814225 65 65 65
-9.60105 -6.88475 36.8358 -0.405515 0.127274 -0.905184 4 4 4
-9.69384 -7.08576 36.7685 -0.355412 0.154281 -0.921889 1 1 1
-9.03727 -6.91999 36.5322 0.418134 -0.335067 -0.844331 119 119 119
-9.30161 -6.91841 36.7344 -0.361564 0.432403 -0.826014 3 3 3
-8.41492 -6.91357 36.3148 -0.640435 0.100946 -0.761349 0 0 0
-8.41492 -6.91357 36.3148 -0.640435 0.100946 -0.761349 0 0 0
-8.03408 -6.78769 35.9359 -0.64821 0.143358 -0.747845 9 9 9
-7.86986 -6.7118 35.8969 -0.650443 0.140917 -0.746369 124 124 124
-6.40495 -6.2927 34.0198 0.82319 0.261217 -0.504108 255 255 255
-6.20751 -6.34883 34.0826 -0.650072 0.172901 -0.739941 159 159 159
-10.4609 -6.81533 36.949 -0.301662 -0.283982 -0.91014 255 255 255
-9.65126 -6.68213 36.883 -0.372079 0.252808 -0.89311 105 105 105
-9.83378 -6.88593 36.9462 -0.379853 0.460425 -0.802322 122 122 122
-9.48351 -6.70031 36.8941 -0.429107 0.332213 -0.839941 2 2 2
-8.90081 -6.73621 36.4781 -0.499076 -0.0811395 -0.862751 8 8 8
-8.63324 -6.72466 36.2642 -0.380088 -0.369466 -0.847955 0 0 0
-8.13363 -6.59944 36.0537 -0.335583 0.121236 -0.934177 0 0 0
-7.61464 -6.48152 35.6892 -0.650121 0.0970077 -0.753613 252 252 252
-6.98421 -6.41059 35.6059 0.852826 0.113038 -0.509814 255 255 255
-10.3215 -6.44302 36.6441 -0.232052 -0.37887 -0.895885 255 255 255
-9.92584 -6.70592 37.1293 -0.594487 -0.041647 -0.803026 252 252 252
-9.78578 -6.50267 37.1025 -0.614358 0.0376156 -0.78813 239 239 239
-9.52163 -6.49256 36.9061 -0.61685 0.0340591 -0.786343 56 56 56
-9.07386 -6.51183 36.6528 -0.610586 0.0874736 -0.787104 0 0 0
-9.33892 -6.64877 36.9476 -0.633488 0.188018 -0.750561 0 0 0
-8.91945 -6.53057 36.5605 0.612776 -0.145528 -0.776742 0 0 0
-8.59471 -6.50919 36.2943 -0.312667 -0.468241 -0.826432 0 0 0
-8.40179 -6.28173 36.2147 -0.611489 -0.0553936 -0.789311 0 0 0
-8.08998 -6.34261 36.08 -0.638744 0.127465 -0.758788 0 0 0
-7.78037 -6.32928 35.8575 -0.646035 0.0754776 -0.759567 180 180 180
-7.59354 -6.21827 35.7225 -0.646502 0.0602092 -0.760533 254 254 254
-7.42963 -6.14612 35.5918 -0.646752 0.0473336 -0.76123 255 255 255
-7.29068 -6.30331 35.528 -0.658249 0.216906 -0.720875 255 255 255
-9.94899 -6.38342 37.1307 -0.614275 0.0521628 -0.787366 255 255 255
-9.20086 -6.3199 36.668 -0.624795 0.0609623 -0.778405 0 0 0
-8.26131 -6.19167 36.2456 -0.621212 0.0680783 -0.78068 0 0 0
-7.97388 -6.12676 36.0556 -0.551796 -0.000613004 -0.833979 18 18 18
-8.06429 -6.07271 36.0837 -0.636869 0.0632145 -0.768376 1 1 1
-7.57509 -5.99387 35.7409 -0.651895 0.103185 -0.751256 255 255 255
-7.76752 -6.06429 35.8813 -0.642055 0.0484577 -0.765126 201 201 201
-7.26611 -6.03635 35.5106 -0.653495 0.0899872 -0.751562 255 255 255
-7.33577 -6.08415 35.7277 -0.658806 0.152257 -0.736744 255 255 255
-6.93312 -6.11276 35.7324 -0.302984 -0.0444369 -0.951959 255 255 255
-6.57013 -5.91841 35.5333 -0.644915 0.0887088 -0.759089 90 90 90
-9.51441 -6.18387 36.9319 -0.629546 0.158899 -0.760541 120 120 120
-9.17075 -6.02143 36.6654 -0.632493 0.217456 -0.743415 0 0 0
-8.12457 -5.873 36.2036 -0.629066 0.350435 -0.693881 0 0 0
-7.89607 -5.88723 36.0283 -0.613765 0.180287 -0.768628 67 67 67
-7.92033 -5.83452 36.0367 -0.610408 0.231301 -0.757563 41 41 41
-7.69978 -5.83246 35.8894 -0.610123 0.183998 -0.770646 239 239 239
-7.45499 -5.77763 35.8609 -0.628429 0.168363 -0.759428 255 255 255
-7.43577 -5.91374 35.7453 -0.655117 0.117146 -0.74639 255 255 255
-6.99277 -5.92107 35.6403 -0.107926 0.168237 -0.97982 255 255 255
-6.68836 -5.75519 35.6621 -0.669424 0.162654 -0.724855 154 154 154
-6.85124 -5.82869 35.7228 -0.62806 0.170158 -0.759333 253 253 253
-6.23319 -5.84102 35.6012 -0.039076 0.140415 -0.989321 0 0 0
-5.64156 -6.0066 36.6812 0.731102 0.182851 -0.657309 254 254 254
-9.49066 -5.93166 37.0516 -0.629772 0.212947 -0.747022 107 107 107
-9.10566 -5.7793 36.7246 -0.623669 0.30969 -0.717725 0 0 0
-9.32205 -5.88532 37.0121 -0.632251 0.206848 -0.746641 9 9 9
-8.23863 -5.64608 36.2873 -0.607957 0.298936 -0.735545 0 0 0
-8.03036 -5.64137 36.1873 -0.600475 0.232991 -0.764948 6 6 6
-7.78401 -5.65093 35.954 -0.597396 0.234385 -0.76693 192 192 192
-7.65475 -5.60578 35.8635 -0.593977 0.256728 -0.762419 253 253 253
-7.48012 -5.56806 35.8406 -0.616273 0.257684 -0.744181 255 255 255
-7.48128 -5.56965 35.785 -0.618393 0.279713 -0.734405 255 255 255
-7.47946 -5.56617 35.7937 -0.626809 0.272711 -0.72989 255 255 255
-6.97951 -5.67596 35.8434 -0.627547 0.107132 -0.771173 255 255 255
-6.79069 -5.59046 35.6895 -0.618313 0.135238 -0.774209 228 228 228
-6.53308 -5.68331 35.616 -0.504475 0.110476 -0.85633 55 55 55
-6.38058 -5.62495 35.6263 -0.275047 0.131015 -0.952462 0 0 0
-6.08598 -5.67323 35.657 0.14522 0.144862 -0.978737 6 6 6
-5.7546 -5.71874 36.5671 0.323342 0.191873 -0.926625 236 236 236
-9.3451 -5.63492 36.9074 -0.63136 0.194603 -0.750676 42 42 42
-8.22548 -5.438 36.1145 -0.446687 0.217147 -0.867939 0 0 0
-8.06368 -5.44997 36.1014 -0.292073 0.256921 -0.921241 0 0 0
-7.77751 -5.41571 36.0292 -0.603276 0.0734668 -0.794142 201 201 201
-7.78613 -5.44972 36.0028 -0.589246 0.157963 -0.792362 188 188 188
-7.6173 -5.42059 35.9493 -0.59928 0.101081 -0.794132 255 255 255
-7.47522 -5.36253 35.9682 -0.591792 0.157999 -0.790454 255 255 255
-7.24056 -5.4035 36.0074 -0.437542 0.0421226 -0.898211 255 255 255
-6.96938 -5.36536 35.766 0.0363682 0.111881 -0.993056 255 255 255
-7.06746 -5.50719 35.7991 -0.619197 0.0816435 -0.780979 255 255 255
-6.74786 -5.36892 35.7512 -0.605212 0.158852 -0.780054 162 162 162
-6.49661 -5.34578 35.7978 -0.172713 0.0922532 -0.980642 0 0 0
-6.29817 -5.34697 35.7725 0.0347498 0.195573 -0.980073 0 0 0
-6.4061 -5.48391 35.6851 0.0212905 0.185204 -0.982469 1 1 1
-6.1946 -5.5138 35.744 -0.0211677 0.241932 -0.970062 0 0 0
-5.63073 -5.64513 36.799 0.609058 0.116009 -0.784596 255 255 255
-9.33419 -5.41309 37.0868 -0.632233 0.136806 -0.762605 36 36 36
-8.18699 -5.27657 36.3443 -0.49364 0.216892 -0.842186 0 0 0
-7.91076 -5.26332 36.1463 -0.559386 0.13608 -0.817661 32 32 32
-7.898 -5.27626 36.1604 -0.557305 0.155979 -0.815525 52 52 52
-7.73605 -5.19388 36.0738 -0.585691 0.0994231 -0.804414 223 223 223
-7.74889 -5.23367 36.073 -0.556212 0.146072 -0.818102 217 217 217
-7.55433 -5.18401 35.9512 -0.621403 0.166744 -0.765543 255 255 255
-7.26179 -5.20174 35.8998 -0.475456 0.156335 -0.865737 255 255 255
-6.95625 -5.15638 35.9288 -0.592451 0.155097 -0.790536 254 254 254
-7.095 -5.21113 35.8901 -0.426806 0.226018 -0.875644 255 255 255
-6.71869 -5.15407 35.7933 -0.536228 0.0999112 -0.838139 109 109 109
-6.16958 -5.1447 35.7706 0.186565 0.335521 -0.923374 2 2 2
-9.99125 -5.37674 37.7258 -0.0467517 -0.695925 -0.716591 255 255 255
-9.23542 -5.11818 36.9841 -0.633087 0.14131 -0.761073 14 14 14
-9.03577 -5.26551 36.6999 -0.622252 0.0131668 -0.782706 0 0 0
-9.07887 -5.28357 36.8021 -0.631858 0.0900187 -0.769839 0 0 0
-8.75428 -5.13841 36.6387 -0.555585 0.121448 -0.822542 0 0 0
-8.75428 -5.13841 36.6387 -0.555585 0.121448 -0.822542 0 0 0
-8.75428 -5.13841 36.6387 -0.555585 0.121448 -0.822542 0 0 0
-8.20705 -5.05536 36.2357 -0.517902 0.22772 -0.824573 0 0 0
-8.20651 -4.99837 35.9846 -0.532173 0.168563 -0.829686 0 0 0
-7.86902 -5.04701 36.1835 -0.547544 0.134532 -0.825891 76 76 76
-7.85756 -5.05324 36.1913 -0.570917 0.128057 -0.810959 98 98 98
-8.05616 -5.0428 36.2443 -0.528651 0.235259 -0.815587 0 0 0
-7.64173 -5.00322 36.011 -0.552846 0.216788 -0.804589 253 253 253
-7.56205 -4.93117 35.9756 -0.65387 0.166709 -0.738012 255 255 255
-7.40614 -5.07581 35.7419 -0.516875 0.138298 -0.844816 255 255 255
-6.82445 -4.93846 35.8494 -0.562723 0.29389 -0.77264 187 187 187
-6.60035 -4.96304 35.7197 -0.496287 0.135774 -0.857475 33 33 33
-6.28261 -4.98839 35.8746 0.0181613 0.324511 -0.945707 0 0 0
-8.98165 -4.98981 36.6495 -0.63329 0.0989562 -0.767562 0 0 0
-8.78777 -4.91743 36.5109 -0.637321 0.142285 -0.757349 0 0 0
-8.30653 -4.82184 36.2084 -0.453879 0.348951 -0.819894 0 0 0
-8.18149 -4.83773 36.3163 -0.505876 0.341161 -0.792274 0 0 0
-7.95827 -4.87203 36.274 -0.375037 0.199512 -0.905286 10 10 10
-7.76193 -4.83979 36.1649 -0.519166 0.215566 -0.827042 201 201 201
-7.68852 -4.78828 36.1705 -0.237048 0.306898 -0.921749 246 246 246
-7.48061 -4.91304 36.134 -0.529768 0.241256 -0.813106 255 255 255
-7.22567 -4.85475 35.8142 -0.0216345 0.304727 -0.952194 255 255 255
-6.94694 -4.77903 36.0025 -0.56109 0.199324 -0.803398 246 246 246
-6.69493 -4.79993 35.8041 -0.560536 0.201868 -0.803149 70 70 70
-6.72655 -4.71341 35.7758 -0.55739 0.165546 -0.813579 91 91 91
-6.5495 -4.81694 35.9201 -0.142803 0.193677 -0.970617 2 2 2
-6.38424 -4.82715 35.9348 0.131372 0.19896 -0.971162 0 0 0
-9.99823 -5.12012 38.133 -0.615484 0.303653 -0.727306 255 255 255
-9.25009 -4.75423 37.0748 -0.632199 0.193309 -0.750304 30 30 30
-9.27207 -4.87285 36.9665 -0.632218 0.148471 -0.760432 35 35 35
-9.10314 -4.81382 36.7943 -0.632994 0.19547 -0.749073 1 1 1
-8.91656 -4.74648 36.6811 -0.635078 0.200843 -0.745881 0 0 0
-8.65926 -4.64209 36.3787 -0.551742 -0.0144658 -0.833889 0 0 0
-8.65926 -4.64209 36.3787 -0.551742 -0.0144658 -0.833889 0 0 0
-8.17728 -4.60933 36.1693 -0.50558 0.186066 -0.842477 0 0 0
-8.12098 -4.64696 36.402 -0.502706 0.221356 -0.835636 0 0 0
-8.18738 -4.61255 36.1554 -0.484662 0.194866 -0.852719 0 0 0
-8.18829 -4.61306 36.1579 -0.484989 0.194271 -0.852669 0 0 0
-8.18829 -4.61306 36.1579 -0.484989 0.194271 -0.852669 0 0 0
-7.85735 -4.66488 36.2652 -0.503122 0.239524 -0.83036 87 87 87
-8.01743 -4.64472 36.3738 -0.646034 0.220307 -0.730824 3 3 3
-7.81795 -4.64008 36.2851 -0.00794902 0.136124 -0.99066 164 164 164
-7.47899 -4.70775 36.2729 -0.587581 0.0223015 -0.808858 255 255 255
-7.20698 -4.60408 35.8664 -0.544032 0.121153 -0.830271 255 255 255
-7.02458 -4.60626 35.9526 0.0211172 0.122016 -0.992303 255 255 255
-6.59838 -4.63493 35.8465 -0.26294 0.215046 -0.940541 7 7 7
-6.11204 -4.62764 35.7927 0.843017 0.0270051 -0.537208 30 30 30
-6.22656 -4.55454 36.2846 0.84456 0.0222041 -0.535 55 55 55
-5.12518 -4.80467 36.4574 -0.677565 -0.0143774 -0.735322 255 255 255
-4.80395 -4.62534 36.3142 -0.235205 -0.383745 -0.892983 255 255 255
-4.57531 -4.80423 36.5031 -0.237697 -0.530543 -0.813649 255 255 255
-3.21992 -4.5153 35.0592 -0.367886 -0.484094 -0.793923 255 255 255
-9.08201 -4.59317 36.9405 -0.630304 0.239641 -0.738437 0 0 0
-8.88389 -4.52184 36.8022 -0.63327 0.233848 -0.737756 0 0 0
-8.88152 -4.53205 36.798 -0.633803 0.228629 -0.738933 0 0 0
-8.88216 -4.53057 36.8364 -0.633961 0.229131 -0.738642 0 0 0
-8.09252 -4.4465 36.2351 0.0430432 0.159888 -0.986196 0 0 0
-7.89614 -4.45769 36.3184 -0.318967 0.21179 -0.923799 32 32 32
-7.91082 -4.45879 36.27 0.506447 0.126603 -0.852927 20 20 20
-7.68891 -4.44323 36.2667 -0.309118 0.186856 -0.932486 248 248 248
-7.52531 -4.47923 36.3735 -0.285983 0.0799931 -0.95489 255 255 255
-7.25769 -4.38683 35.8774 -0.329308 0.30922 -0.892154 255 255 255
-7.12364 -4.43643 35.9303 0.305025 0.255798 -0.917348 255 255 255
-6.82504 -4.44436 35.8632 -0.540934 0.135934 -0.830007 139 139 139
-6.70382 -4.26291 35.8937 -0.483234 0.333263 -0.809581 30 30 30
-6.68003 -4.46011 35.9239 -0.373887 0.213134 -0.902653 18 18 18
-6.54536 -4.27379 35.9081 -0.453252 0.274922 -0.847928 0 0 0
-6.52938 -4.47314 36.0164 0.0806579 0.263099 -0.961391 0 0 0
-6.40374 -4.28954 35.9934 0.512695 0.0084444 -0.85853 0 0 0
-6.21891 -4.39675 36.0453 0.00081899 0.481824 -0.876268 21 21 21
-5.59284 -4.4239 36.2441 -0.231599 0.072881 -0.970077 249 249 249
-5.6517 -4.60804 36.652 0.016815 -0.539602 -0.841752 255 255 255
-5.39789 -4.42333 36.2445 0.00584737 -0.511772 -0.859102 248 248 248
-5.1759 -4.43506 36.2209 0.020227 -0.265823 -0.96381 251 251 251
-4.94586 -4.46288 36.2771 -0.11388 -0.531009 -0.839679 252 252 252
-4.59643 -4.4185 36.288 0.0644166 0.0909363 -0.993771 252 252 252
-4.42197 -4.32796 36.1278 0.00871804 -0.503004 -0.86424 229 229 229
-4.05697 -4.5589 36.2774 -0.0107526 -0.255812 -0.966667 255 255 255
-3.21535 -4.25581 34.7295 -0.403657 -0.538542 -0.739617 255 255 255
-8.90569 -4.30438 36.7241 -0.634819 0.195559 -0.747503 0 0 0
-8.7115 -4.23227 36.5886 -0.620677 0.321117 -0.715293 0 0 0
-8.16612 -4.15997 36.4776 -0.490954 0.0868637 -0.866844 0 0 0
-8.09868 -4.1185 36.2858 0.284364 0.109385 -0.952456 0 0 0
-8.30497 -4.38513 36.7171 -0.579691 0.206903 -0.788131 0 0 0
-7.90905 -4.1194 36.3458 0.274259 0.146787 -0.950387 16 16 16
-8.01323 -4.29837 36.3368 -0.120392 0.101087 -0.987566 0 0 0
-7.79501 -4.28383 36.3172 0.0874854 0.120021 -0.988909 185 185 185
-7.6988 -4.17663 36.391 0.378864 0.106714 -0.919279 250 250 250
-7.52107 -4.18263 36.4766 0.0689494 0.135032 -0.988439 255 255 255
-7.41511 -4.29373 36.304 -0.506534 0.595984 -0.623078 255 255 255
-7.14175 -4.25176 36.2184 -0.418977 0.69413 -0.585356 254 254 254
-6.91893 -4.26773 36.0692 -0.466047 0.400853 -0.788745 189 189 189
-6.79666 -4.08931 36.1447 -0.325976 0.575204 -0.750254 30 30 30
-6.51809 -4.11985 36.2492 -0.127512 0.86467 -0.485887 0 0 0
-6.11384 -4.24331 36.109 0.427273 0.544279 -0.72194 86 86 86
-5.4927 -4.24846 36.2219 0.0161619 0.0711896 -0.997332 102 102 102
-5.51678 -4.16226 36.2048 -0.256262 0.423082 -0.869098 39 39 39
-5.30243 -4.23622 36.2056 0.0363701 -0.0308996 -0.998861 105 105 105
-5.08443 -4.23893 36.1282 -0.34574 -0.241233 -0.906791 133 133 133
-4.82082 -4.29083 36.204 -0.0871772 -0.407082 -0.909222 172 172 172
-4.61297 -4.2659 36.1504 -0.0275266 -0.338485 -0.940569 189 189 189
-4.22509 -4.27627 36.0347 0.0142433 -0.395985 -0.918147 217 217 217
-3.85725 -4.07795 35.0975 -0.0109767 -0.733458 -0.679646 174 174 174
-2.54875 -3.91152 34.795 0.551786 0.653963 -0.517557 239 239 239
-2.44306 -4.09712 35.1516 -0.0717347 -0.610157 -0.789026 255 255 255
-2.207 -4.10257 35.1404 -0.266028 -0.413922 -0.870573 255 255 255
-8.16946 -3.9359 36.3586 -0.412689 0.265649 -0.871274 0 0 0
-8.20571 -3.95427 36.4578 -0.450652 0.269082 -0.85118 0 0 0
-8.06309 -3.9813 36.5034 -0.444974 0.219976 -0.868106 0 0 0
-7.82447 -3.95666 36.4135 0.211206 0.263256 -0.941323 117 117 117
-7.38352 -3.98826 36.3855 0.156782 0.729635 -0.665622 254 254 254
-7.15068 -3.92452 36.4035 0.102895 0.771958 -0.627291 106 106 106
-6.79822 -4.00694 36.3 -0.0748059 0.733346 -0.675728 4 4 4
-6.30339 -3.90694 35.8073 -0.507901 0.609018 -0.609207 0 0 0
-6.04393 -3.92962 36.1421 -0.136249 0.202165 -0.969827 11 11 11
-5.8553 -3.92856 36.112 -0.157902 0.222766 -0.961999 5 5 5
-2.14016 -3.78967 35.4159 -0.0964315 0.883916 -0.457595 222 222 222
-1.95078 -3.96871 35.5418 0.45726 0.492543 -0.740483 255 255 255
-1.68255 -3.97941 35.7024 0.615641 0.569676 -0.544477 255 255 255
-1.44168 -4.00639 35.6204 0.654041 0.626463 -0.423999 255 255 255
-8.07294 -3.72435 36.3527 0.394631 0.335179 -0.855524 0 0 0
-7.91162 -3.74406 36.4823 0.0896699 0.408148 -0.908501 22 22 22
-7.6704 -3.78336 36.4355 0.637849 0.177371 -0.749458 252 252 252
-7.47676 -3.84617 36.5203 0.416966 0.271722 -0.867356 250 250 250
-7.25022 -3.82549 36.4968 -0.398785 0.430473 -0.809731 72 72 72
-6.81992 -3.82191 36.2849 -0.358768 0.496828 -0.79022 0 0 0
-6.29829 -3.75541 36.2783 -0.452883 0.226873 -0.862221 11 11 11
-6.09173 -3.75204 36.1198 -0.29745 0.366462 -0.881606 103 103 103
-5.91441 -3.75777 36.138 -0.254871 0.432272 -0.864975 176 176 176
-5.72155 -3.76047 36.1183 -0.223164 0.447717 -0.865879 171 171 171
-5.52921 -3.76322 36.1071 -0.241731 0.436729 -0.866506 158 158 158
-5.3408 -3.79258 36.2146 -0.412473 0.359958 -0.836837 143 143 143
-5.15419 -3.77649 36.0853 -0.213611 0.0963891 -0.972152 114 114 114
-4.96637 -3.786 36.0961 -0.212034 0.288032 -0.933852 97 97 97
-4.78548 -3.7681 36.0162 -0.180418 0.381437 -0.906618 101 101 101
-2.30987 -3.69804 35.1103 -0.138755 0.755312 -0.640508 92 92 92
-2.09064 -3.78108 35.4542 0.454874 0.710713 -0.536635 224 224 224
-1.89265 -3.78343 35.6131 0.469735 0.68212 -0.560412 253 253 253
-1.67376 -3.78634 35.859 0.632586 0.543446 -0.551816 255 255 255
-1.42772 -3.78959 35.8234 0.728204 0.45015 -0.516802 255 255 255
-1.19201 -3.84416 36.5872 0.425181 0.130493 -0.895652 255 255 255
-0.9561 -3.80771 36.4777 0.708206 0.26002 -0.65638 255 255 255
-8.2819 -3.57707 36.6547 0.127382 0.893393 -0.430841 0 0 0
-8.26071 -3.57303 36.5881 0.00162609 0.881808 -0.471606 0 0 0
-8.01932 -3.58434 36.5438 0.419135 0.549758 -0.72256 0 0 0
-7.68769 -3.6683 36.5345 -0.344338 0.549364 -0.761335 249 249 249
-7.40092 -3.67088 36.6004 0.24935 0.279011 -0.92735 68 68 68
-7.29975 -3.64316 36.5705 -0.288505 0.171638 -0.941969 8 8 8
-7.10062 -3.64448 36.4904 -0.35247 0.456962 -0.81667 0 0 0
-7.1615 -3.65565 36.7094 0.226432 0.518595 -0.824493 0 0 0
-6.93237 -3.65355 36.5441 -0.395154 0.360429 -0.844952 0 0 0
-6.69393 -3.64471 36.3109 -0.194577 0.381732 -0.90356 0 0 0
-6.53728 -3.65554 36.438 -0.519374 0.0816384 -0.850639 0 0 0
-6.3251 -3.56331 36.2126 -0.440763 0.303186 -0.84487 17 17 17
-6.16972 -3.57258 36.2626 -0.451891 0.315532 -0.834406 148 148 148
-5.97247 -3.57196 36.147 -0.242798 0.267702 -0.932408 250 250 250
-5.72982 -3.60103 36.0081 0.245943 0.0278038 -0.968885 249 249 249
-5.57634 -3.59266 36.0711 -0.0655933 0.191411 -0.979316 251 251 251
-5.40464 -3.63324 36.2951 -0.35849 0.241331 -0.901801 247 247 247
-5.41967 -3.62687 36.3073 -0.373882 0.35528 -0.856731 244 244 244
-5.30194 -3.46235 35.9023 -0.164264 -0.578761 -0.798782 255 255 255
-5.20421 -3.61305 36.1012 -0.0395585 -0.554136 -0.831485 238 238 238
-4.9798 -3.51429 36.0513 -0.118424 -0.193194 -0.973988 252 252 252
-5.05511 -3.60766 36.0782 -0.0460199 -0.540889 -0.839834 235 235 235
-4.78027 -3.52462 36.0882 -0.0703522 -0.221763 -0.972559 251 251 251
-4.87146 -3.61557 36.1328 -0.20871 0.145109 -0.967152 229 229 229
-4.64761 -3.42213 35.8561 -0.0296738 -0.557125 -0.829898 255 255 255
-4.11943 -3.82569 37.484 0.807512 -0.0209809 -0.589478 203 203 203
-2.32381 -3.49108 35.4684 0.638176 0.543367 -0.545421 1 1 1
-2.07903 -3.59345 35.5598 0.218127 0.7261 -0.652073 47 47 47
-2.07335 -3.59141 35.5666 0.14627 0.749665 -0.645451 48 48 48
-1.88445 -3.59206 35.7772 0.54614 0.483327 -0.684197 124 124 124
-1.62153 -3.54863 35.7472 0.250838 0.675447 -0.693435 233 233 233
-1.43418 -3.50859 36.0662 0.220724 0.514739 -0.828447 250 250 250
-1.26074 -3.63702 36.2007 0.253037 0.150434 -0.955689 255 255 255
-1.05857 -3.63806 36.2713 0.242305 0.153579 -0.957967 255 255 255
-0.820543 -3.59334 36.3503 0.751461 0.272935 -0.600678 255 255 255
-8.18189 -3.37616 36.6985 0.772761 0.553633 -0.310373 0 0 0
-7.98018 -3.38674 36.5708 0.728181 0.442468 -0.523426 0 0 0
-7.51725 -3.51041 36.6539 0.105455 0.374454 -0.921229 77 77 77
-7.32146 -3.50855 36.682 0.193492 0.220023 -0.956112 1 1 1
-7.19601 -3.47 36.5781 -0.381916 0.386204 -0.839635 0 0 0
-7.44315 -3.35195 36.7524 0.400108 0.277719 -0.873376 0 0 0
-7.00525 -3.47893 36.6864 -0.464936 0.111586 -0.878284 0 0 0
-6.77307 -3.46858 36.4509 -0.599221 0.449413 -0.662543 0 0 0
-6.59131 -3.42693 36.6762 -0.666322 0.239526 -0.706146 0 0 0
-6.4212 -3.38776 36.4111 -0.385862 0.395733 -0.83337 2 2 2
-6.21187 -3.38467 36.2538 -0.424801 0.303175 -0.853012 124 124 124
-6.05111 -3.39213 36.2907 -0.383338 0.336816 -0.860004 247 247 247
-5.87531 -3.39687 36.2878 -0.179491 0.381223 -0.906892 255 255 255
-5.68044 -3.45036 36.23 -0.049701 0.192243 -0.980088 255 255 255
-5.27013 -3.40931 35.9904 -0.409412 -0.342024 -0.845814 255 255 255
-5.0662 -3.41469 35.9759 -0.162067 -0.0827714 -0.983302 255 255 255
-5.07649 -3.3978 35.9359 -0.0497017 -0.567885 -0.821606 255 255 255
-4.80159 -3.15097 34.9348 -0.0679644 -0.587597 -0.806294 255 255 255
-4.74652 -3.25822 35.8379 0.266803 -0.436374 -0.859298 255 255 255
-4.37908 -3.38218 35.9136 0.00316332 -0.548308 -0.83627 255 255 255
-4.15586 -3.27084 35.8223 0.228577 -0.117308 -0.966432 255 255 255
-4.10085 -3.25734 36.1032 0.377977 0.448457 -0.80995 255 255 255
-3.97175 -3.66451 37.603 0.754372 0.0514915 -0.654424 234 234 234
-4.12571 -3.54889 37.6432 0.76449 0.0376572 -0.643534 254 254 254
-2.9629 -3.26456 34.9843 0.394151 0.623584 -0.675121 203 203 203
-2.75 -3.19397 35.3486 0.349652 0.798942 -0.489321 243 243 243
-2.51402 -3.20088 35.6895 0.132601 0.871575 -0.471989 230 230 230
-2.26912 -3.34102 35.8456 0.111747 0.414006 -0.903389 15 15 15
-2.06127 -3.39896 35.8095 0.627672 0.52649 -0.573443 0 0 0
-2.05563 -3.33991 35.8515 0.674899 0.479862 -0.560574 0 0 0
-1.83779 -3.42097 35.8866 0.361172 0.431814 -0.826493 8 8 8
-1.85421 -3.39193 35.9338 0.646871 0.459794 -0.608397 1 1 1
-1.62726 -3.41454 36.0048 0.65545 -0.145605 -0.74107 84 84 84
-1.42767 -3.31407 36.1275 0.38987 0.213183 -0.895854 94 94 94
-1.42987 -3.32082 36.1364 0.413931 0.214699 -0.884627 100 100 100
-1.24838 -3.43805 36.2049 0.328595 0.276318 -0.903147 252 252 252
-1.23794 -3.3178 36.2829 0.545617 -0.0762525 -0.834558 217 217 217
-1.23407 -3.32125 36.2365 0.362731 0.195745 -0.911104 224 224 224
-1.05773 -3.44405 36.383 0.510202 -0.00872113 -0.860011 254 254 254
-0.6927 -3.42673 36.5095 0.772499 -0.0252831 -0.634512 255 255 255
-11.4269 -3.3112 37.2812 -0.408791 -0.420063 -0.810208 255 255 255
-8.35228 -3.25387 37.2017 -0.639694 0.236964 -0.73119 0 0 0
-7.92459 -3.19406 36.718 0.742921 0.47635 -0.470276 32 32 32
-7.57709 -3.19045 36.8121 -0.193702 0.357702 -0.913526 7 7 7
-7.11412 -3.29517 36.8353 -0.442374 0.194464 -0.875493 0 0 0
-6.59286 -3.22653 36.4566 -0.662925 0.251334 -0.705239 0 0 0
-6.08322 -3.20402 36.2335 -0.418412 0.266109 -0.868399 238 238 238
-5.87546 -3.20108 36.0818 -0.496057 0.300572 -0.814606 255 255 255
-5.72022 -3.20868 36.1157 -0.50614 0.317126 -0.802031 255 255 255
-5.87387 -3.20565 36.0911 -0.49063 0.297172 -0.819128 255 255 255
-5.43215 -3.20928 36.0504 -0.592974 -0.132632 -0.794224 255 255 255
-2.93175 -3.05037 35.0981 0.647267 0.535092 -0.542883 255 255 255
-2.73637 -3.06838 35.408 0.614546 0.570372 -0.544986 255 255 255
-2.47308 -3.02925 35.7043 0.665679 0.499413 -0.55449 255 255 255
-2.23262 -3.05474 35.7282 0.569359 0.467594 -0.676155 242 242 242
-2.22557 -3.15443 35.8408 -0.125675 0.868007 -0.480385 167 167 167
-1.96545 -3.22179 35.9819 0.527732 0.298146 -0.795366 3 3 3
-1.76183 -3.24245 36.0659 0.655484 0.418644 -0.628553 0 0 0
-1.58547 -3.16225 36.1382 0.394515 0.338673 -0.8542 0 0 0
-1.53404 -3.2721 36.1165 0.571073 0.494624 -0.655151 11 11 11
-1.34646 -3.13282 36.2207 0.43013 0.335564 -0.838084 5 5 5
-1.34904 -3.13734 36.2226 0.438463 0.332324 -0.835051 5 5 5
-1.14529 -3.13815 36.2834 0.422107 0.123124 -0.898146 105 105 105
-1.04513 -3.22074 36.3807 0.505746 -0.0536678 -0.861011 239 239 239
-0.948858 -3.1388 36.39 0.342774 0.0661705 -0.937084 230 230 230
-0.879256 -3.32873 36.4715 0.447908 -0.0947264 -0.889048 254 254 254
-0.652216 -3.31606 36.3378 0.383279 0.531416 -0.755443 255 255 255
-11.0841 -2.89117 36.7983 -0.447616 -0.319092 -0.835356 255 255 255
-7.89119 -3.02268 36.8682 0.413955 0.171763 -0.893945 76 76 76
-7.69156 -3.02584 36.965 0.227008 0.30591 -0.924601 29 29 29
-7.47785 -3.02503 36.915 -0.0506377 0.254092 -0.965854 0 0 0
-7.49405 -3.01562 36.8586 -0.299342 0.0463452 -0.95302 0 0 0
-7.28511 -3.0056 36.64 -0.213328 0.0795224 -0.973739 0 0 0
-6.64905 -3.03972 36.444 -0.597949 0.254869 -0.759933 0 0 0
-6.18456 -3.02963 36.4268 -0.300846 0.454192 -0.838571 201 201 201
-5.94485 -3.02148 36.1505 -0.479582 0.319346 -0.817324 255 255 255
-5.81887 -2.83729 36.1573 -0.474628 0.353858 -0.805923 255 255 255
-4.10041 -3.22243 37.1993 0.78491 0.241773 -0.570493 255 255 255
-3.44918 -2.80597 35.5729 0.42382 0.782886 -0.455485 255 255 255
-3.44982 -2.80611 35.5765 0.422917 0.78405 -0.454319 255 255 255
-3.03898 -2.86747 35.9879 0.594345 0.540436 -0.595553 255 255 255
-2.80746 -2.87697 36.0988 0.62373 0.558594 -0.546749 255 255 255
-2.49079 -2.86673 35.635 0.701453 0.534491 -0.471469 255 255 255
-2.41236 -2.80626 35.6898 0.63322 0.497634 -0.592784 255 255 255
-2.21506 -2.86053 36.027 0.30094 0.551896 -0.777719 255 255 255
-2.01929 -2.98991 35.9862 0.102348 0.673237 -0.732309 221 221 221
-1.87598 -3.03759 36.0555 0.478685 0.163538 -0.862621 57 57 57
-1.80259 -2.91242 36.0839 0.071145 0.533389 -0.842873 146 146 146
-1.62022 -3.02071 36.1483 0.296059 0.0719523 -0.952456 1 1 1
-1.30358 -3.00823 36.2355 0.416456 0.383888 -0.824132 1 1 1
-1.19701 -3.07369 36.2141 0.611869 -0.250036 -0.750399 20 20 20
-1.0204 -2.98614 36.3823 0.375047 0.0485124 -0.925736 37 37 37
-0.746917 -3.13859 36.4594 0.283792 0.253872 -0.924668 254 254 254
-0.820412 -2.9863 36.4672 0.503947 0.356059 -0.78693 192 192 192
-0.761 -3.12636 36.433 0.252593 0.285778 -0.924407 254 254 254
-0.537919 -3.13364 36.4917 0.455828 0.46091 -0.761435 255 255 255
-0.552224 -3.12465 36.4529 0.399497 0.48489 -0.778 255 255 255
-0.283691 -3.07074 36.2333 0.21682 0.868653 -0.445455 255 255 255
-10.7226 -2.66706 36.557 -0.383549 0.175129 -0.906763 255 255 255
-8.65461 -2.91581 37.7531 -0.277548 0.722742 -0.632938 0 0 0
-8.18202 -2.93103 37.0335 -0.334114 0.268287 -0.903543 0 0 0
-8.39329 -2.92566 37.0698 -0.249099 0.561765 -0.788904 0 0 0
-7.80436 -2.85546 36.9766 0.395453 0.228114 -0.889708 84 84 84
-7.8195 -2.84901 36.9687 0.0426567 0.295087 -0.954518 93 93 93
-7.59603 -2.83059 37.0106 0.131538 0.287491 -0.948708 1 1 1
-7.60491 -2.8559 37.0325 0.269861 0.253121 -0.929034 1 1 1
-7.61477 -2.85692 37.0739 0.412821 0.237158 -0.879395 1 1 1
-7.39435 -2.82908 37.014 0.0119075 0.39189 -0.919935 0 0 0
-7.40937 -2.85066 37.0052 0.181423 0.479311 -0.858689 0 0 0
-7.38327 -2.83357 36.9924 -0.039127 0.621012 -0.782824 0 0 0
-6.55506 -2.75608 36.4837 -0.21261 0.378467 -0.900866 0 0 0
-6.26027 -2.85927 36.55 -0.00374523 0.390082 -0.920773 153 153 153
-6.01884 -2.85296 36.3877 -0.536945 0.244818 -0.807313 254 254 254
-6.16752 -2.70025 36.6485 0.137422 0.339115 -0.930654 245 245 245
-5.92049 -2.64351 36.3755 -0.415286 0.196766 -0.888156 255 255 255
-2.69619 -2.78976 35.9443 0.646449 0.485619 -0.588454 255 255 255
-2.54203 -2.72929 36.3522 0.475117 0.710044 -0.519713 255 255 255
-2.46183 -2.81117 35.9852 0.142456 0.810758 -0.567783 255 255 255
-2.02476 -2.80127 36.1629 0.218091 0.621222 -0.752675 255 255 255
-1.80931 -2.7339 36.1912 0.161415 0.348007 -0.923491 253 253 253
-1.60857 -2.8247 36.1715 0.322614 0.188398 -0.927592 85 85 85
-1.59468 -2.73263 36.1921 0.19355 0.329569 -0.924079 191 191 191
-1.40844 -2.82471 36.2414 0.256876 -0.106811 -0.960524 3 3 3
-1.38326 -2.73183 36.2135 0.107387 -0.345372 -0.932301 21 21 21
-1.20147 -2.82527 36.3117 -0.297709 -0.330695 -0.89555 1 1 1
-0.890547 -2.78634 36.0885 0.750506 0.289888 -0.59389 2 2 2
-0.512813 -2.97181 36.8226 0.354665 0.77968 -0.516053 254 254 254
-8.30388 -2.75835 37.3152 -0.448109 0.621726 -0.642383 0 0 0
-8.39649 -2.74592 37.6657 -0.384162 0.630083 -0.674845 0 0 0
-8.63862 -2.7021 37.8324 -0.178977 0.637388 -0.749469 0 0 0
-7.7381 -2.68846 37.1413 0.613196 0.160528 -0.773448 26 26 26
-7.70362 -2.66431 37.0972 0.465817 0.20273 -0.861345 12 12 12
-7.52118 -2.67383 36.9253 -0.620484 0.369385 -0.691776 0 0 0
-7.49905 -2.66523 37.1239 0.13869 0.332183 -0.932963 0 0 0
-7.50142 -2.66406 37.1209 0.112553 0.323392 -0.939548 0 0 0
-7.38606 -2.6351 36.9522 -0.503353 0.571374 -0.648203 0 0 0
-7.29638 -2.65624 36.9988 0.649786 0.161374 -0.74279 0 0 0
-6.59229 -2.56667 36.8375 -0.638124 0.138714 -0.757335 0 0 0
-6.00562 -2.46891 36.4964 -0.350642 0.346464 -0.870065 255 255 255
-6.14207 -2.55645 36.5339 -0.676226 0.138857 -0.723489 253 253 253
-6.03276 -2.53384 36.5395 -0.411913 0.25316 -0.87535 255 255 255
-2.26093 -2.6815 36.497 0.162987 0.843233 -0.512244 255 255 255
-2.03248 -2.61613 36.3765 0.0537313 0.438583 -0.897083 255 255 255
-1.81588 -2.61518 36.3832 0.423184 0.609094 -0.67076 255 255 255
-1.49618 -2.55637 36.2167 -0.127416 -0.00469255 -0.991838 244 244 244
-1.26588 -2.55245 36.1584 -0.03344 -0.481339 -0.875897 112 112 112
-0.839019 -2.56078 36.3009 0.719098 0.507842 -0.474336 1 1 1
-8.42587 -2.5382 38.0189 -0.638558 0.246831 -0.728916 0 0 0
-7.60986 -2.49958 37.2498 0.57189 0.14537 -0.807347 0 0 0
-7.40273 -2.50504 37.3709 0.524388 0.553385 -0.647133 0 0 0
-7.40331 -2.50488 37.3726 0.519749 0.554412 -0.649991 0 0 0
-6.54922 -2.31348 36.9121 -0.424143 0.452801 -0.784266 7 7 7
-6.61929 -2.30189 36.5048 0.139465 0.592454 -0.793441 0 0 0
-6.59834 -2.39795 36.5042 0.448939 0.310641 -0.837828 0 0 0
-6.2706 -2.39061 36.7018 -0.581999 0.278201 -0.764121 194 194 194
-6.08857 -2.29458 36.6252 -0.37571 0.504898 -0.777123 255 255 255
-1.87767 -2.411 36.2108 0.0849984 0.715998 -0.692909 255 255 255
-2.03805 -2.52741 36.8414 0.0195171 0.878909 -0.47659 255 255 255
-1.96011 -2.31774 36.6236 -0.447211 -0.234456 -0.863153 255 255 255
-1.85209 -2.4688 36.4024 -0.262679 0.367186 -0.892286 255 255 255
-1.70626 -2.28086 36.3059 0.292406 0.224144 -0.929655 255 255 255
-1.40359 -2.38695 36.2478 -0.556532 0.188347 -0.809196 254 254 254
-1.2162 -2.42306 36.404 0.279107 -0.575029 -0.769052 234 234 234
-6.69371 -2.19293 36.6528 -0.0961766 0.32807 -0.939745 0 0 0
-6.5478 -2.2326 36.9181 -0.49976 0.313512 -0.807434 7 7 7
-6.53944 -2.12437 36.7856 0.00854362 0.616547 -0.787272 0 0 0
-6.18268 -2.17168 36.77 -0.564943 0.396711 -0.723505 247 247 247
-1.99742 -2.32718 36.9596 -0.274713 0.434459 -0.857775 255 255 255
-1.604 -2.17017 36.5642 0.365556 0.722992 -0.586218 255 255 255
-1.3381 -2.16841 36.3299 -0.758151 0.0960674 -0.644964 255 255 255
-6.87889 -2.03428 36.7016 -0.156949 0.871459 -0.464679 0 0 0
-6.67783 -2.02909 36.6264 0.176101 0.461464 -0.869505 0 0 0
-6.56537 -2.0055 36.6624 0.439979 0.373121 -0.816822 0 0 0
-6.39167 -2.00847 36.8907 -0.493741 0.487883 -0.719855 96 96 96
-6.06236 -1.96361 36.8769 -0.140145 0.713343 -0.68666 255 255 255
-6.21593 -1.97374 36.8269 -0.588175 0.467331 -0.660039 248 248 248
-6.23148 -1.91023 37.0636 0.843923 -0.0119864 -0.53633 247 247 247
-6.06359 -1.9682 36.8529 0.431032 0.607239 -0.667437 255 255 255
-6.06359 -1.9682 36.8529 0.431032 0.607239 -0.667437 255 255 255
-9.10457 -1.74311 36.9245 -0.0670103 -0.0456801 -0.996706 0 0 0
-6.69086 -1.83556 36.7356 0.0722193 0.241256 -0.967771 0 0 0
-6.62935 -1.79815 36.8978 0.0572426 0.447232 -0.892584 0 0 0
-6.41473 -1.79836 36.8763 -0.110697 0.453697 -0.884254 103 103 103
-6.11909 -1.74824 37.3372 0.680097 0.216475 -0.700433 255 255 255
-6.00954 -1.77164 37.398 0.358191 0.756632 -0.546998 255 255 255
-9.06214 -1.50267 36.6179 -0.373102 0.493793 -0.78547 3 3 3
-7.40054 -1.65372 37.2242 -0.545479 0.528513 -0.650482 0 0 0
-7.07172 -1.58874 36.9888 -0.247731 0.821056 -0.514293 13 13 13
-6.67547 -1.58883 36.9362 0.373618 0.613136 -0.696041 0 0 0
-6.51335 -1.62953 36.9166 0.798941 0.068737 -0.597468 33 33 33
-6.29096 -1.63711 37.1031 0.777618 0.145045 -0.611779 249 249 249
-6.19074 -1.487 37.2526 0.546875 0.0871515 -0.832666 255 255 255
-6.02744 -1.569 37.1293 0.217549 0.57219 -0.790741 255 255 255
-9.01498 -1.35183 37.3397 -0.429564 0.652816 -0.623944 0 0 0
-7.40336 -1.26858 37.1935 0.15731 0.691768 -0.704777 0 0 0
-7.22362 -1.40215 37.2585 -0.585607 0.431553 -0.686168 5 5 5
-6.84613 -1.36861 37.358 -0.544179 0.508512 -0.667296 172 172 172
-6.98111 -1.43783 37.3305 -0.483222 0.583419 -0.652777 103 103 103
-6.55378 -1.34511 37.1053 -0.23997 0.396732 -0.886013 143 143 143
-6.76816 -1.34806 37.2654 -0.44605 0.624479 -0.641144 169 169 169
-6.30399 -1.31958 37.2994 0.84548 0.0502792 -0.531634 254 254 254
-6.11026 -1.31546 37.3092 0.231737 0.482821 -0.844501 255 255 255
-7.42572 -1.08356 37.4054 0.0920682 0.601155 -0.793811 0 0 0
-7.15234 -1.12434 37.5148 -0.421537 0.483181 -0.767361 120 120 120
-6.96817 -1.19049 37.4633 -0.371658 0.376775 -0.848475 249 249 249
-6.63131 -1.13349 37.2672 -0.486918 0.279039 -0.827676 255 255 255
-6.74291 -1.12391 37.5312 -0.229957 0.787649 -0.571602 255 255 255
-6.41055 -1.13357 37.1406 0.427654 0.0802995 -0.900369 255 255 255
-6.21713 -1.13514 37.2953 0.392693 0.143918 -0.908339 255 255 255
-6.01842 -1.13818 37.5031 0.841822 0.0604396 -0.536361 255 255 255
-7.4492 -0.885364 37.6399 0.11377 0.672424 -0.73137 0 0 0
-7.29944 -0.960264 37.6928 -0.34048 0.588043 -0.733675 19 19 19
-7.05186 -0.953629 37.6474 0.0672811 0.499349 -0.863785 221 221 221
-6.84658 -0.953602 37.6632 -0.257719 0.561668 -0.7862 255 255 255
-6.64535 -0.953993 37.594 -0.626653 0.36662 -0.687674 255 255 255
-6.31849 -0.952776 37.2771 0.579523 0.19649 -0.790914 255 255 255
-6.1459 -0.947316 37.002 0.445434 0.115325 -0.887856 255 255 255
-7.45345 -0.692854 37.8308 0.384023 0.553327 -0.739158 0 0 0
-7.13775 -0.772247 37.6297 -0.418159 0.5571 -0.717484 107 107 107
-7.23103 -0.732802 37.6514 -0.0662166 0.661709 -0.746831 35 35 35
-6.87837 -0.761838 37.544 -0.543493 0.531897 -0.649385 250 250 250
-6.69651 -0.785303 37.4758 -0.123558 0.229125 -0.965523 255 255 255
-7.13809 -0.558664 37.7967 -0.367737 0.428726 -0.825205 117 117 117
-6.89985 -0.597811 37.5576 -0.666453 0.166021 -0.726827 243 243 243
-6.85633 -0.53967 37.5005 -0.665389 0.17777 -0.725021 253 253 253
-6.5999 -0.529052 37.3177 -0.672251 0.136233 -0.727681 255 255 255
-6.74761 -0.521783 37.5326 -0.658011 0.108235 -0.745189 255 255 255
-7.44653 -0.290145 38.0852 0.592234 0.499816 -0.632014 0 0 0
-7.18887 -0.366214 37.8587 -0.666299 0.00771108 -0.745645 74 74 74
-6.87786 -0.351311 37.6895 -0.666978 -0.0325675 -0.744366 250 250 250
-6.94174 -0.357842 37.6694 -0.667363 -0.0168953 -0.744541 211 211 211
-7.20673 -0.10808 37.9226 -0.630412 -0.197179 -0.750801 30 30 30
-9.42435 -12.8386 34.6917 0.715388 -0.323775 -0.619185 255 255 255
-9.53287 -12.4792 34.2555 0.539169 -0.00435197 -0.842187 255 255 255
-9.20323 -12.6898 34.4016 0.877064 -0.140937 -0.459233 255 255 255
-9.10383 -12.609 34.6293 0.729944 -0.199319 -0.653799 255 255 255
-8.96611 -12.7838 34.7996 0.763396 -0.273532 -0.585155 255 255 255
-9.36276 -12.374 34.3712 0.72583 0.0879262 -0.682231 245 245 245
-9.2294 -12.4185 34.4559 0.69681 -0.247289 -0.673278 254 254 254
-9.17261 -12.4291 34.4492 0.756028 -0.114053 -0.644526 254 254 254
-9.39683 -12.1154 34.4314 0.753246 0.0998802 -0.650111 3 3 3
-8.99849 -12.313 34.623 0.622524 -0.385776 -0.680911 242 242 242
-9.24952 -12.0664 34.7021 0.736343 0.622375 -0.265421 1 1 1
-10.0201 -11.8143 35.1074 -0.0361155 0.964584 -0.261293 255 255 255
-9.49376 -11.8686 34.7986 0.636236 0.680023 -0.364379 124 124 124
-7.5084 -12.0076 36.0357 -0.308483 -0.395519 -0.865103 255 255 255
-10.3103 -11.7222 35.7114 0.824677 0.443758 -0.350694 255 255 255
-9.94982 -11.9873 36.5227 0.553842 0.805623 -0.210311 255 255 255
5.91498 -13.0918 39.3732 -0.422809 -0.521128 -0.741389 255 255 255
-7.58812 -11.3582 35.6378 -0.610732 -0.0241732 -0.791469 254 254 254
5.85343 -12.3402 38.2343 -0.729921 -0.15758 -0.66512 255 255 255
-7.32308 -11.1373 35.2927 -0.631095 -0.0629453 -0.773148 255 255 255
5.38409 -12.1509 38.2397 -0.272583 -0.234801 -0.933042 255 255 255
5.64343 -12.2015 38.3771 -0.596472 -0.127164 -0.792496 255 255 255
-9.2559 -11.0619 37.5468 -0.663984 0.115483 -0.738775 1 1 1
1.07928 -11.1864 37.7263 0.152723 0.774352 -0.614047 255 255 255
6.96407 -11.1844 36.9242 -0.894996 0.325708 -0.304788 255 255 255
-7.94106 -10.3984 35.8776 -0.679151 0.111594 -0.725466 90 90 90
0.291403 -11.0866 37.8196 -0.0798996 -0.173952 -0.981507 255 255 255
4.16882 -11.2225 38.1202 0.368624 -0.0662398 -0.927215 0 0 0
-8.40638 -10.1355 36.281 -0.66262 0.0403024 -0.747871 0 0 0
-7.92746 -10.1457 35.8214 -0.681403 0.144641 -0.717474 39 39 39
-7.77643 -10.0982 35.8931 -0.685865 0.178006 -0.705622 206 206 206
-8.42682 -10.1371 36.4823 -0.67546 0.145258 -0.722949 0 0 0
-8.11077 -9.91598 35.7189 -0.614351 -0.14093 -0.776345 0 0 0
-8.12048 -9.9238 35.749 -0.633007 -0.0908959 -0.768792 0 0 0
-8.03184 -9.89619 35.8029 -0.679709 0.203915 -0.704567 0 0 0
-8.11252 -9.92768 35.8856 -0.656751 -0.0105166 -0.754034 0 0 0
-7.29199 -9.67391 35.2462 -0.664105 0.147254 -0.732995 255 255 255
-9.90437 -10.1492 37.7311 0.208617 -0.309054 -0.927882 255 255 255
-8.41984 -9.82318 36.3857 -0.675508 0.173712 -0.716598 0 0 0
-7.81898 -9.61416 35.4833 -0.681903 0.180913 -0.708716 96 96 96
-8.01678 -9.58758 35.6815 -0.678968 0.190349 -0.709062 48 48 48
-7.67797 -9.58341 35.5843 -0.684674 0.146556 -0.713962 246 246 246
-7.43434 -9.45603 35.3454 -0.686641 0.116514 -0.717599 255 255 255
-9.67788 -9.75483 37.3927 -0.650952 0.0759429 -0.75531 255 255 255
-7.63634 -9.4768 35.7494 -0.678391 0.054618 -0.732668 254 254 254
-7.98346 -9.31717 35.8517 -0.678754 0.118409 -0.724757 55 55 55
-7.76586 -9.20131 35.7002 -0.682975 0.135455 -0.717773 204 204 204
-7.56331 -9.13653 35.6886 -0.614846 0.29335 -0.732059 255 255 255
-8.68889 -9.18819 36.4283 -0.664962 0.23146 -0.710107 0 0 0
-7.90985 -8.98083 35.7974 -0.678435 0.0969225 -0.728239 100 100 100
-7.67059 -8.83945 35.566 -0.56559 -0.28187 -0.775021 253 253 253
-7.43718 -8.88382 35.7397 -0.688633 0.118851 -0.715304 255 255 255
-8.90024 -9.08412 37.0547 -0.499954 0.103179 -0.859884 0 0 0
-8.90024 -9.08412 37.0547 -0.499954 0.103179 -0.859884 0 0 0
-8.91129 -9.0327 36.8901 -0.658625 0.036354 -0.751592 4 4 4
-7.87766 -8.66624 35.8426 -0.679984 0.105742 -0.725562 120 120 120
-11.9641 -8.71542 37.3937 -0.470572 0.63078 -0.616992 237 237 237
-9.29533 -8.79983 36.9634 -0.660012 0.13917 -0.738252 214 214 214
-9.10519 -8.77572 37.0368 0.0507913 -0.140622 -0.98876 8 8 8
-7.74263 -8.45693 35.6049 -0.680931 0.100778 -0.72538 211 211 211
-8.77628 -8.40319 36.7052 -0.264599 -0.313546 -0.911963 0 0 0
-7.88852 -8.25936 35.7412 -0.679904 0.127852 -0.72207 97 97 97
-8.02625 -8.06144 35.829 -0.673357 0.0585065 -0.736998 23 23 23
-4.74819 -8.1363 35.7118 -0.0839868 -0.00975326 -0.996419 254 254 254
-4.47984 -8.26087 35.7781 -0.175588 -0.302529 -0.936827 255 255 255
-4.50964 -8.10162 35.6154 0.128237 -0.278328 -0.951887 255 255 255
-10.3107 -7.96482 36.94 -0.165674 -0.322476 -0.931966 255 255 255
-10.1666 -8.14571 36.9291 -0.107243 -0.28244 -0.953272 255 255 255
-8.84132 -7.99749 36.539 -0.651919 -0.0126894 -0.758182 0 0 0
-8.5748 -7.9597 36.3958 -0.649013 -0.0390427 -0.759775 0 0 0
-7.89652 -7.72499 35.5756 -0.678111 0.120631 -0.724992 68 68 68
-7.89652 -7.72499 35.5756 -0.678111 0.120631 -0.724992 68 68 68
-10.0082 -7.88661 36.6761 0.092865 -0.372648 -0.923314 255 255 255
-7.69648 -7.58186 35.553 -0.681967 0.120429 -0.721399 219 219 219
-5.91033 -7.21118 33.6134 -0.676542 0.359126 -0.642899 85 85 85
-7.83783 -7.41029 35.7116 -0.677172 0.148317 -0.720721 136 136 136
-6.01885 -7.012 33.7951 -0.696638 0.254008 -0.670951 84 84 84
-5.65283 -7.32079 35.1674 -0.704523 0.182938 -0.685698 161 161 161
-7.98215 -7.24027 35.8776 -0.672121 0.164555 -0.721924 35 35 35
-8.59569 -7.03015 36.1066 -0.661984 0.0360475 -0.74865 0 0 0
-8.1227 -7.06849 36.0299 -0.666795 0.155828 -0.728768 0 0 0
-7.46239 -6.9371 35.4797 -0.683617 0.0610698 -0.727282 255 255 255
-6.10249 -6.79371 33.8547 -0.697674 0.230093 -0.67846 120 120 120
-7.6658 -6.75064 35.7278 -0.667354 0.0681551 -0.741615 248 248 248
-7.44844 -6.67244 35.5278 -0.663377 0.0695499 -0.745046 255 255 255
-6.98109 -6.7948 35.9273 0.852131 0.126819 -0.50773 255 255 255
-6.98443 -6.80065 35.9524 0.824554 0.143652 -0.547244 255 255 255
-7.8105 -6.59688 35.8536 -0.665373 0.0498069 -0.744848 154 154 154
-10.1586 -6.46025 36.8488 -0.394992 -0.461337 -0.794449 255 255 255
-9.37881 -6.41482 36.8289 -0.653923 0.0684488 -0.753459 4 4 4
-7.59955 -6.23959 35.69 -0.680505 0.0315081 -0.732065 253 253 253
-7.44439 -6.40766 35.5768 -0.659224 0.0457132 -0.750556 255 255 255
-5.3432 -6.47233 36.6986 0.488119 0.484188 -0.726156 255 255 255
-5.50041 -6.27356 36.6873 0.561688 0.453575 -0.691937 255 255 255
-5.45475 -6.39383 36.8663 0.74142 0.299486 -0.600504 255 255 255
-9.90127 -5.99788 36.6162 -0.270376 -0.637229 -0.721689 255 255 255
-8.27295 -5.88855 36.1972 -0.639765 0.333868 -0.692267 0 0 0
-6.35383 -6.02349 35.661 -0.19228 0.0863161 -0.977537 2 2 2
-5.44431 -6.07193 36.8322 0.642678 0.38255 -0.663792 255 255 255
-7.19895 -5.67119 35.4931 -0.594874 0.229333 -0.770409 255 255 255
-7.19895 -5.67119 35.4931 -0.594874 0.229333 -0.770409 255 255 255
-7.19895 -5.67119 35.4931 -0.594874 0.229333 -0.770409 255 255 255
-5.55055 -5.80602 36.7536 0.57407 0.231863 -0.785291 255 255 255
-9.04095 -5.54612 36.6599 -0.63123 -0.123662 -0.765674 0 0 0
-5.96821 -5.65995 36.4059 0.751914 0.214032 -0.623551 59 59 59
-5.85712 -5.56029 36.5919 0.7515 0.227092 -0.619418 170 170 170
-7.22409 -5.3885 35.955 -0.222505 -0.0617281 -0.972975 255 255 255
-7.44871 -5.13834 36.0934 -0.647142 0.313426 -0.694962 255 255 255
-5.95125 -5.10188 36.5832 0.721843 0.0880158 -0.686437 133 133 133
-5.9769 -4.88737 36.6169 0.503058 0.0627025 -0.861975 148 148 148
-6.13353 -4.99794 36.349 0.73162 0.0974682 -0.674709 39 39 39
-5.87996 -4.71242 36.6703 0.278284 0.0413061 -0.95961 252 252 252
-5.72438 -4.67057 36.5959 -0.444275 -0.494187 -0.747261 255 255 255
-4.91552 -4.85386 36.6044 -0.484827 -0.260583 -0.834889 255 255 255
-5.30783 -4.56605 36.1804 -0.0913457 -0.136892 -0.986365 255 255 255
-4.27612 -4.56128 36.2989 -0.0323307 -0.272421 -0.961635 255 255 255
-3.44465 -4.32379 34.961 -0.338326 -0.678567 -0.651984 255 255 255
-2.76734 -4.38979 35.4711 -0.0753284 -0.651954 -0.754507 255 255 255
-3.52061 -4.1822 35.031 -0.0620959 -0.769641 -0.63545 243 243 243
-3.3877 -4.31104 35.0021 -0.234626 -0.732417 -0.639153 255 255 255
-2.95271 -4.22418 34.9325 -0.138511 -0.65211 -0.745364 255 255 255
-2.68113 -4.16567 35.0604 -0.258969 -0.731799 -0.630401 255 255 255
-2.52779 -4.31518 35.4745 -0.127105 -0.597255 -0.791916 255 255 255
-2.29609 -4.29113 35.2585 -0.266527 -0.413826 -0.870466 255 255 255
-7.62445 -4.01644 36.4825 0.267418 0.250089 -0.930561 255 255 255
-6.66659 -4.10506 36.2329 0.0645358 0.65051 -0.756751 0 0 0
-5.59148 -4.08355 36.2481 -0.181463 0.0169104 -0.983252 1 1 1
-5.18133 -4.0971 36.2278 -0.182661 -0.297362 -0.937129 4 4 4
-4.91748 -4.15401 36.2296 -0.13361 0.179648 -0.974615 30 30 30
-4.93426 -4.14689 36.2411 -0.135797 0.152185 -0.978979 26 26 26
-4.68832 -4.14612 36.2074 -0.0794654 0.316515 -0.945253 35 35 35
-4.45007 -4.16739 36.242 0.125988 0.16311 -0.978531 44 44 44
-3.44513 -4.09396 34.8056 -0.431858 -0.530571 -0.729379 235 235 235
-3.21139 -4.08667 34.8594 -0.120221 -0.764062 -0.633843 241 241 241
-6.62759 -3.82649 36.2557 -0.279406 0.563468 -0.777455 0 0 0
-5.06392 -3.94997 36.075 -0.263157 -0.189654 -0.945928 1 1 1
-4.88753 -3.93886 36.0054 -0.189755 -0.28555 -0.93939 0 0 0
-4.54615 -3.9362 36.0498 0.0324726 -0.313272 -0.949108 0 0 0
-3.69377 -3.65897 34.4577 -0.032296 0.301903 -0.952792 19 19 19
-11.2178 -3.53535 37.2758 -0.356586 -0.453277 -0.816938 251 251 251
-3.50162 -3.65511 34.4491 0.0863811 0.207542 -0.974405 11 11 11
-3.00283 -3.6216 34.4839 0.726774 0.403043 -0.556198 1 1 1
-2.81231 -3.65515 34.6738 0.670636 0.474477 -0.570192 1 1 1
-2.60971 -3.69159 34.8874 0.56257 0.561023 -0.607263 2 2 2
-2.54961 -3.69846 34.9316 0.510082 0.599078 -0.617189 5 5 5
-5.49244 -3.45697 36.2577 -0.0478651 0.198636 -0.978904 255 255 255
-3.14338 -3.36061 34.4636 0.775507 0.261105 -0.574816 243 243 243
-2.94043 -3.43807 34.6819 0.61119 0.356126 -0.706839 119 119 119
-2.7611 -3.41077 34.9309 0.667616 0.380223 -0.640093 104 104 104
-2.75072 -3.47189 34.8795 0.6067 0.56875 -0.555373 19 19 19
-2.53156 -3.46662 35.2201 0.636403 0.548451 -0.542395 9 9 9
-2.57337 -3.45911 35.1891 0.657036 0.519389 -0.546388 16 16 16
-2.32407 -3.49119 35.4703 0.636441 0.54582 -0.544999 1 1 1
-6.46232 -3.17286 36.5433 -0.68163 0.256187 -0.685382 0 0 0
-5.05091 -3.12317 35.6796 -0.555749 -0.491954 -0.670167 255 255 255
-3.11959 -3.10504 34.7732 0.504487 0.535164 -0.677564 255 255 255
-6.58295 -2.99515 36.7682 -0.682037 0.245485 -0.688885 0 0 0
-3.11229 -3.01707 34.722 0.667524 0.507341 -0.544993 255 255 255
-7.32073 -2.68995 37.1869 0.836076 0.143246 -0.529582 0 0 0
-7.29874 -2.65679 37.0195 0.667423 0.152325 -0.728933 0 0 0
-6.46359 -2.73762 36.6618 -0.698183 0.170786 -0.69525 0 0 0
-6.02095 -2.83823 36.297 -0.67713 0.198584 -0.708561 255 255 255
-6.00631 -2.85214 36.2934 -0.680159 0.162704 -0.714781 255 255 255
-6.43429 -2.48104 36.7932 -0.683157 0.16823 -0.71063 14 14 14
-6.30324 -2.6494 36.6038 -0.70321 0.155708 -0.693722 108 108 108
-5.89464 -2.65487 36.328 -0.688135 0.254444 -0.679506 255 255 255
-5.75194 -2.59063 36.3675 -0.633665 0.361891 -0.683742 255 255 255
-5.96232 -1.49596 37.5907 0.244038 0.496202 -0.833204 255 255 255
-5.89786 -1.31477 37.3503 0.116337 0.0653657 -0.991057 255 255 255
-6.94244 -1.12931 37.7375 0.0800011 0.252768 -0.964214 255 255 255
-8.41243 -14.2747 34.0637 0.846912 0.0633498 -0.527946 254 254 254
-8.24053 -14.4191 34.2592 0.861721 0.0629845 -0.503458 197 197 197
-8.58414 -14.1327 33.8663 0.85734 0.0046719 -0.51473 255 255 255
-8.55747 -14.1385 33.9201 0.8702 0.11125 -0.479975 255 255 255
-8.74664 -13.5858 33.5788 0.833519 0.0819169 -0.546384 255 255 255
-8.60091 -13.7932 33.907 0.858833 0.227081 -0.459173 255 255 255
-8.58596 -13.763 33.8525 0.860493 0.0189113 -0.509111 255 255 255
-8.44964 -14.0126 34.3172 0.824612 0.173803 -0.538338 252 252 252
-8.27953 -14.1565 34.5489 0.867016 0.114259 -0.485003 104 104 104
-8.10607 -14.2089 34.481 0.863601 0.0909694 -0.495901 1 1 1
-8.79757 -13.3621 33.5349 0.67408 0.470378 -0.569527 255 255 255
-8.36986 -13.9617 34.5243 0.867176 0.0945745 -0.488939 177 177 177
-8.11097 -14.0623 34.843 0.76404 0.525011 -0.374975 0 0 0
-8.14398 -13.9183 34.6873 0.821298 0.0511487 -0.568202 1 1 1
-8.66121 -13.5258 34.0586 0.774605 0.0808956 -0.62725 255 255 255
-8.63969 -13.6174 34.2057 0.870033 0.206204 -0.447798 255 255 255
-8.59873 -13.5325 34.2532 0.564964 -0.0234472 -0.824782 255 255 255
-8.31071 -13.786 34.6915 0.629686 0.381855 -0.676522 45 45 45
-8.14029 -13.7648 34.6925 0.684288 0.627371 -0.371692 0 0 0
-11.3716 -13.3168 34.3252 -0.304482 0.138238 -0.942434 255 255 255
-11.131 -13.3136 34.2506 -0.500095 0.113404 -0.858513 255 255 255
-8.70212 -13.2248 33.8642 0.825325 0.193919 -0.530314 255 255 255
-8.54286 -13.4814 34.5472 0.865724 0.0521698 -0.497795 239 239 239
-8.43901 -13.6219 34.8377 0.651248 0.437208 -0.620263 121 121 121
-8.25168 -13.6213 34.8943 0.863401 0.0623251 -0.500653 1 1 1
-7.97006 -13.8552 35.0759 0.704611 0.525728 -0.476586 0 0 0
-12.1495 -13.1486 34.2745 0.47214 0.211082 -0.855879 255 255 255
-11.9807 -13.2238 34.4364 0.536174 0.187599 -0.822997 255 255 255
-12.1202 -13.1676 34.4992 0.348189 0.350568 -0.869406 232 232 232
-11.8496 -13.1004 34.5481 -0.235255 0.383706 -0.892987 203 203 203
-11.4922 -13.1132 34.4018 -0.34962 0.447856 -0.822916 254 254 254
-11.2669 -13.1352 34.3857 -0.27038 0.0909393 -0.958449 255 255 255
-11.0254 -13.1314 34.3092 -0.395568 0.0472159 -0.917222 255 255 255
-10.8423 -13.1005 34.3742 -0.346488 -0.223758 -0.910976 255 255 255
-10.5053 -13.0344 34.1411 -0.256082 -0.0140682 -0.966553 255 255 255
-8.74136 -13.2787 34.6444 0.871144 0.0887885 -0.482933 255 255 255
-8.57555 -13.3765 34.7076 0.869399 0.0854726 -0.486662 240 240 240
-11.9503 -12.9554 34.7685 -0.367236 0.461039 -0.807825 1 1 1
-11.1356 -12.899 34.3914 -0.216685 -0.0267811 -0.975874 234 234 234
-10.8547 -12.8549 34.2316 -0.325738 0.319975 -0.889669 255 255 255
-10.5582 -12.723 33.9989 -0.155622 0.119584 -0.980552 255 255 255
